-5620.57084849639	 -1831.8222468268502	 434.446	
-5620.602298990126	 -1831.6260741635685	 434.246	
-5620.641439174367	 -1831.3702355094294	 434.746	
-5620.666103011484	 -1831.2048083040409	 434.046	
-5620.69419028378	 -1831.018116124028	 433.746	
-5620.727907279304	 -1830.8003092854437	 433.846	
-5620.76316826455	 -1830.566222282185	 434.046	
-5620.800540000304	 -1830.321013897054	 434.546	
-5620.8341176242375	 -1830.1081438648796	 434.646	
-5620.865630197917	 -1829.9008207169716	 434.446	
-5620.895853192095	 -1829.697431853469	 434.246	
-5620.925389471727	 -1829.5068763696033	 434.046	
-5620.958705839334	 -1829.2939312713115	 433.946	
-5620.990592821299	 -1829.0861182000945	 433.946	
-5621.021836076427	 -1828.8787197992556	 433.846	
-5621.055887372396	 -1828.6542111676922	 433.946	
-5621.0855659754925	 -1828.463091892263	 433.746	
-5621.118943414379	 -1828.2452068580178	 433.746	
-5621.154082016153	 -1828.0111151141487	 434.046	
-5621.186097336284	 -1827.8027377465064	 433.946	
-5621.219157037684	 -1827.5903516596125	 433.946	
-5621.245173403714	 -1827.4142133918142	 433.646	
-5621.276918822887	 -1827.2119707344912	 433.546	
-5621.30642012125	 -1827.0158376547295	 433.446	
-5621.338167015319	 -1826.8073850866674	 433.246	
-5621.371470803871	 -1826.5894971066593	 433.246	
-5621.401025485736	 -1826.3977388939804	 433.046	
-5621.434371566476	 -1826.174276615295	 433.146	
-5621.471932008168	 -1825.9285708453126	 433.546	
-5621.495942659001	 -1825.7691989666341	 433.046	
-5621.527513629752	 -1825.5557329323326	 433.046	
-5621.568066560289	 -1825.2960935274994	 433.546	
-5621.603531696812	 -1825.0559341750245	 433.946	
-5621.636654985139	 -1824.8429810473037	 433.946	
-5621.6684116758615	 -1824.6295869542655	 433.946	
-5621.697889672065	 -1824.4378256790603	 433.746	
-5621.7311318618695	 -1824.2205691402187	 433.646	
-5621.757151135816	 -1824.0494377342102	 433.346	
-5621.788406951641	 -1823.8421045866162	 433.346	
-5621.81451425023	 -1823.66603479603	 432.946	
-5621.845595682412	 -1823.4692123584266	 432.746	
-5621.882838135121	 -1823.2240634209318	 433.146	
-5621.9156997039445	 -1823.0116692025435	 433.146	
-5621.9398979601165	 -1822.8467936466088	 432.546	
-5621.969588657183	 -1822.6495295346824	 432.546	
-5621.999271395443	 -1822.4522651244802	 432.346	
-5622.030233177491	 -1822.244856030458	 432.446	
-5622.060015326685	 -1822.0588111512468	 432.146	
-5622.09096045384	 -1821.8514014086861	 432.246	
-5622.1259202002	 -1821.6223092775124	 432.246	
-5622.150016940564	 -1821.4630054059546	 431.846	
-5622.179371143132	 -1821.2712391780772	 431.646	
-5622.214303795576	 -1821.0421459712354	 431.746	
-5622.240128119647	 -1820.8666346776995	 431.446	
-5622.273296186952	 -1820.6537474439376	 431.546	
-5622.300980350615	 -1820.4670400246684	 431.246	
-5622.323024114226	 -1820.3232325579238	 430.646	
-5622.3577304622795	 -1820.0946998531178	 430.746	
-5622.394856598339	 -1819.8439710743935	 431.246	
-5622.426342700701	 -1819.6361422131347	 431.246	
-5622.453475443596	 -1819.4610688879648	 430.946	
-5622.490387151264	 -1819.2109011745654	 431.446	
-5622.534396808438	 -1818.9232831859904	 432.246	
-5622.550877882794	 -1818.811228011035	 431.346	
-5622.578207765707	 -1818.6362267759127	 430.846	
-5622.606047477532	 -1818.4433810559674	 430.646	
-5622.653656891789	 -1818.1352028942867	 431.646	
-5622.7050403116555	 -1817.7897458230088	 432.946	
-5607.152673504453	 -1917.6368902745132	 506.161	
-5607.17526350622	 -1917.5043257458756	 507.361	
-5607.232179324241	 -1917.1686856875708	 506.361	
-5607.280980726959	 -1916.8697324088312	 505.861	
-5607.326924998368	 -1916.5986150628933	 505.661	
-5607.369025311729	 -1916.348106311759	 505.561	
-5607.4047810730335	 -1916.129875146994	 505.861	
-5607.447252915769	 -1915.8738644246732	 505.661	
-5607.485076916774	 -1915.6444483692305	 505.761	
-5607.520232089587	 -1915.4372924745521	 506.061	
-5607.5561383331715	 -1915.2184983879995	 506.261	
-5607.6192015038705	 -1914.845555061501	 505.161	
-5607.67990872091	 -1914.478702923273	 503.861	
-5607.66097116459	 -1914.5899501697834	 507.461	
-5607.728150405897	 -1914.1852415610554	 505.661	
-5607.834571751007	 -1913.5516389880115	 501.861	
-5607.866606779933	 -1913.3540870339955	 502.261	
-5607.90776492635	 -1913.1101912973877	 502.261	
-5607.96454803162	 -1912.7689579885841	 501.261	
-5608.004146860966	 -1912.5295470067283	 501.261	
-5608.077651260103	 -1912.0919881210084	 499.261	
-5608.135648501961	 -1911.741173431005	 498.261	
-5608.179387581596	 -1911.4800272965701	 497.961	
-5608.230146782729	 -1911.1655676825628	 497.261	
-5608.2778521246555	 -1910.8832481093204	 496.761	
-5608.319634513364	 -1910.6277077764482	 496.661	
-5608.371859677261	 -1910.3131376565705	 495.861	
-5608.419546356578	 -1910.0314516856845	 495.461	
-5608.454986931356	 -1909.812569190399	 495.661	
-5608.492579743971	 -1909.5887895728579	 495.861	
-5608.534293941075	 -1909.3332456579653	 495.661	
-5608.573748596376	 -1909.098840942362	 495.661	
-5608.611448509707	 -1908.8644680317902	 495.861	
-5608.6383654826595	 -1908.7046561575632	 496.661	
-5608.692735092757	 -1908.3739546741074	 495.661	
-5608.746505170766	 -1908.0493135719723	 494.861	
-5608.786669815154	 -1907.8039040915105	 494.961	
-5608.838330684546	 -1907.4904459475074	 493.961	
-5608.888087898692	 -1907.1919897858786	 493.261	
-5608.927026877905	 -1906.9580648711426	 493.261	
-5608.979236446163	 -1906.6435574581797	 492.361	
-5609.020601930362	 -1906.3929452742973	 492.361	
-5609.060108343516	 -1906.153593007365	 492.261	
-5609.101257972651	 -1905.9035403946207	 492.161	
-5609.143190540837	 -1905.6475009068115	 492.061	
-5609.178272012172	 -1905.4341844052444	 492.361	
-5609.221864662194	 -1905.168080160691	 492.061	
-5609.26525083825	 -1904.9069149355046	 491.761	
-5609.311070835595	 -1904.6246840141669	 491.161	
-5609.3540777087455	 -1904.3696542570171	 491.161	
-5609.401548503176	 -1904.081736947358	 490.461	
-5609.445416436743	 -1903.8094918130882	 490.161	
-5609.490823590541	 -1903.5377734566123	 489.761	
-5609.534470640651	 -1903.2660877379067	 489.361	
-5609.575851696625	 -1903.0105266630794	 489.161	
-5609.6189643774105	 -1902.7549313508177	 488.961	
-5609.662188084578	 -1902.4887441533294	 488.661	
-5609.703940562437	 -1902.2326953551112	 488.361	
-5609.750937916706	 -1901.9509084580493	 487.961	
-5609.788103505595	 -1901.721457945305	 487.861	
-5609.81877534524	 -1901.54109522618	 488.661	
-5609.85440052811	 -1901.3161315989203	 488.861	
-5609.901532424239	 -1901.029402143314	 488.361	
-5609.942795655354	 -1900.7738350983936	 488.161	
-5609.972292117447	 -1900.596836444171	 488.861	
-5610.027594190926	 -1900.256603276288	 487.661	
-5610.084772317365	 -1899.9107588253116	 486.261	
-5610.1322012692035	 -1899.6229030354293	 485.561	
-5610.179237587725	 -1899.3405470665418	 484.961	
-5610.220564897611	 -1899.0793995475578	 484.661	
-5610.267449503423	 -1898.803254162512	 484.061	
-5610.308747846331	 -1898.542105230243	 483.861	
-5610.353676626339	 -1898.2753109055539	 483.561	
-5610.399262497133	 -1897.9874844927683	 482.661	
-5610.44207345429	 -1897.7268600210668	 482.361	
-5610.487704328095	 -1897.4490618409347	 481.861	
-5610.530486462423	 -1897.188435865176	 481.561	
-5610.571547407403	 -1896.932858677991	 481.161	
-5610.614674247662	 -1896.6667305642625	 480.861	
-5610.659682894264	 -1896.3949910658694	 480.361	
-5610.702557819346	 -1896.128786276087	 479.961	
-5610.745309865766	 -1895.8731715026902	 479.661	
-5610.788568254976	 -1895.606479364851	 479.261	
-5610.898239650028	 -1895.2422044282532	 478.171	
-5610.93549334968	 -1895.0078722953392	 478.271	
-5610.971995394043	 -1894.7845411261421	 478.371	
-5611.009605854215	 -1894.5490857375353	 478.371	
-5611.046044429185	 -1894.3207387338493	 478.571	
-5611.080852838608	 -1894.1074707296004	 478.871	
-5611.115282825771	 -1893.8997029943696	 479.271	
-5611.150767282373	 -1893.6704177934603	 479.371	
-5611.185324552057	 -1893.4570732534228	 479.771	
-5611.224016811266	 -1893.2226265553072	 479.771	
-5611.260994119138	 -1892.9932293945974	 479.971	
-5611.293851519765	 -1892.785569757107	 480.371	
-5611.328737391076	 -1892.5667225464301	 480.771	
-5611.363135039721	 -1892.359587675249	 481.271	
-5611.398001701739	 -1892.1407395301585	 481.671	
-5611.434372005772	 -1891.9174017756172	 481.871	
-5611.473356527643	 -1891.6774505348344	 481.771	
-5611.510215073776	 -1891.4430351462242	 481.871	
-5611.546965151808	 -1891.2192097081806	 482.171	
-5611.587856358783	 -1890.9580400890081	 481.771	
-5611.624361379268	 -1890.7341384903843	 481.971	
-5611.661221064943	 -1890.5047356208079	 482.071	
-5611.697563305326	 -1890.2864087586038	 482.471	
-5611.732876229327	 -1890.0571158236469	 482.671	
-5611.773057938725	 -1889.8125956331864	 482.571	
-5611.809651296502	 -1889.583115627837	 482.671	
-5611.850725217655	 -1889.3270315454881	 482.471	
-5611.885232149521	 -1889.1081018993066	 482.771	
-5611.923526080093	 -1888.8742057973243	 482.871	
-5611.962500177066	 -1888.628671430551	 482.771	
-5612.002972528821	 -1888.3786468874246	 482.571	
-5612.03582088871	 -1888.1704167984633	 483.171	
-5612.078469504498	 -1887.904263770684	 482.671	
-5612.114783784444	 -1887.6753407168653	 482.871	
-5612.150860976004	 -1887.4625830895661	 483.371	
-5612.193247932231	 -1887.1963532000168	 482.971	
-5612.228430900165	 -1886.9714320633905	 483.171	
-5612.276742927437	 -1886.6734706115171	 482.071	
-5612.319858142319	 -1886.401251660731	 481.271	
-5612.359992963599	 -1886.1511466014765	 481.271	
-5612.394390777448	 -1885.9328464872415	 481.471	
-5612.438802408748	 -1885.6610751708376	 480.871	
-5612.471209661511	 -1885.458976577177	 481.771	
-5612.509652323077	 -1885.2189348491283	 481.671	
-5612.547894627184	 -1884.9794538100318	 481.771	
-5612.582839695991	 -1884.7601036363974	 482.071	
-5612.628774192665	 -1884.4732489494957	 481.071	
-5612.669186623023	 -1884.2220166085444	 480.771	
-5612.715312460661	 -1883.9352352841472	 479.771	
-5612.756088517185	 -1883.679137008246	 479.171	
-5612.794576497116	 -1883.4335154861708	 479.071	
-5612.835193136041	 -1883.1829915943558	 478.771	
-5612.877045247602	 -1882.9272657542747	 478.571	
-5612.915474076728	 -1882.6772643195568	 478.171	
-5612.967398314538	 -1882.3581104527673	 476.071	
-5613.000176264391	 -1882.149307144001	 476.771	
-5613.034039364051	 -1881.9364994789491	 477.371	
-5613.074355765809	 -1881.6858970109654	 477.171	
-5613.116649047727	 -1881.4197271332664	 476.571	
-5613.156938835783	 -1881.169123388537	 476.271	
-5613.191170358814	 -1880.9558271965877	 476.771	
-5613.227380040968	 -1880.7269637030847	 477.071	
-5613.26370844982	 -1880.4925241861786	 476.971	
-5613.303468740148	 -1880.2529944415812	 476.771	
-5613.343475162113	 -1880.00231302489	 476.471	
-5613.389892000848	 -1879.7094577628304	 475.271	
-5613.423964460008	 -1879.4905082485739	 475.871	
-5613.46999917373	 -1879.2031523171956	 474.271	
-5613.510210256324	 -1878.95317925304	 473.771	
-5613.546290066363	 -1878.723675296496	 473.871	
-5613.582171160879	 -1878.4947322144326	 474.171	
-5613.620493171368	 -1878.2547490570162	 474.071	
-5613.662436493995	 -1877.9935098261717	 473.271	
-5613.700322603642	 -1877.7540121329828	 473.071	
-5613.736569130724	 -1877.5245803400574	 473.471	
-5613.7726793406655	 -1877.3007234979216	 473.971	
-5613.812694443131	 -1877.0450956440811	 473.171	
-5613.852535435559	 -1876.7944065341478	 472.671	
-5613.8929349852515	 -1876.5382908081615	 471.771	
-5613.934598552621	 -1876.277608629316	 470.971	
-5613.970240347203	 -1876.0542357645418	 471.571	
-5614.006059477792	 -1875.830301016188	 471.971	
-5614.0422151779885	 -1875.600865062886	 472.271	
-5614.078049458031	 -1875.3775654185101	 472.671	
-5614.1241514741305	 -1875.0840612888398	 470.271	
-5614.167734325354	 -1874.8121859189348	 468.971	
-5614.205341627398	 -1874.5782564117405	 469.071	
-5614.2394421347	 -1874.3600073539371	 469.571	
-5614.282452152475	 -1874.0941922088105	 468.471	
-5614.321022989564	 -1873.8431228586135	 467.571	
-5614.356553054453	 -1873.6197447923887	 468.071	
-5614.392139670406	 -1873.4013801410129	 468.871	
-5614.424621698125	 -1873.182606372724	 469.571	
-5614.466360175513	 -1872.9263682626042	 468.771	
-5614.504116215511	 -1872.6812838740868	 468.071	
-5614.541465383425	 -1872.4522888280062	 468.371	
-5614.576931625972	 -1872.2289078120205	 468.971	
-5614.611269030537	 -1872.0051533648286	 469.571	
-5614.64690189921	 -1871.781209963635	 469.971	
-5614.684550818715	 -1871.5467121701777	 470.371	
-5614.720504295606	 -1871.3172670823953	 470.671	
-5614.7579437992945	 -1871.0833297117283	 470.671	
-5614.795559175434	 -1870.8488303264942	 470.871	
-5614.831068884748	 -1870.6198706743535	 471.271	
-5614.867202418078	 -1870.3904981819462	 471.871	
-5614.9042203907675	 -1870.1614233877267	 472.671	
-5614.938238575717	 -1869.9375903003017	 473.571	
-5614.9735893996485	 -1869.714204020273	 474.371	
-5615.013276420567	 -1869.4635721645618	 473.471	
-5615.052309253724	 -1869.224577114756	 473.271	
-5615.089950220313	 -1868.984498337772	 473.271	
-5615.12727779517	 -1868.750555743713	 473.771	
-5615.161380624308	 -1868.5255223755266	 474.371	
-5615.198795963474	 -1868.2972284681482	 475.471	
-5615.236167242474	 -1868.0570731506755	 475.371	
-5615.274087986948	 -1867.8114911368446	 474.471	
-5615.311472410628	 -1867.571970811727	 474.771	
-5615.3504127552	 -1867.3329713098265	 474.571	
-5615.387847784873	 -1867.098463524445	 474.871	
-5615.4235169675785	 -1866.8639954957464	 475.371	
-5615.460929417669	 -1866.6294866903454	 475.871	
-5615.4982556488285	 -1866.3899637829347	 475.871	
-5615.535980707381	 -1866.149953260432	 475.971	
-5615.574627519126	 -1865.9108759744713	 475.771	
-5615.61232899651	 -1865.6708643721865	 475.671	
-5615.649460051445	 -1865.4362784758355	 476.871	
-5615.686951620037	 -1865.1968273952627	 476.571	
-5615.724393813337	 -1864.9567398071733	 476.771	
-5615.762048245454	 -1864.7167261186994	 477.371	
-5615.800624946446	 -1864.4776455155363	 477.871	
-5615.836353858967	 -1864.2426106084536	 478.171	
-5615.875464280108	 -1863.9981026652747	 478.271	
-5615.912436804226	 -1863.7584996855032	 478.271	
-5615.9650373783	 -1863.5047595325018	 478.471	
-5616.00243438339	 -1863.2653039503127	 478.671	
-5616.039781722294	 -1863.0252118829114	 478.871	
-5616.076930923793	 -1862.7856809160917	 479.071	
-5616.116048232274	 -1862.5461826946048	 478.971	
-5616.153173888592	 -1862.3066506792554	 478.971	
-5616.191925565576	 -1862.0614276297117	 479.371	
-5616.2292135303405	 -1861.821332965108	 479.271	
-5616.26634157799	 -1861.5824353827804	 479.071	
-5616.305467225404	 -1861.336723407548	 479.571	
-5616.344103305328	 -1861.0977090782096	 479.371	
-5616.380079374818	 -1860.8621797475034	 478.371	
-5616.418796678837	 -1860.6175893847417	 478.471	
-5616.455909334765	 -1860.3830665588725	 478.571	
-5616.492742508726	 -1860.1440915902515	 478.171	
-5616.53109597914	 -1859.9050002325364	 477.771	
-5616.567014235165	 -1859.6694684820807	 477.471	
-5616.603998270758	 -1859.4299303779242	 477.271	
-5616.640829433346	 -1859.1953307390027	 476.671	
-5616.681360620261	 -1858.945755893445	 477.671	
-5616.718494942717	 -1858.7056545699675	 477.771	
-5616.753843093845	 -1858.4761826998904	 476.971	
-5616.792665237725	 -1858.2316612272639	 477.371	
-5616.827766593837	 -1858.0021141638956	 476.371	
-5616.864141682863	 -1857.7792228700591	 475.071	
-5616.897449374848	 -1857.560304944386	 473.571	
-5616.936225678032	 -1857.31578139654	 474.371	
-5616.9728552480055	 -1857.0867520686052	 473.371	
-5617.008127103772	 -1856.8572769365926	 472.971	
-5617.0466437258	 -1856.6126775775117	 473.171	
-5617.081893218319	 -1856.383201509938	 472.971	
-5617.191893133245	 -1855.686228280518	 471.971	
-5617.265545415803	 -1855.2121478965053	 472.071	
-5617.302173767411	 -1854.9775393102593	 471.571	
-5617.338732985147	 -1854.7491408751011	 471.371	
-5617.373991358901	 -1854.514086355286	 471.471	
-5617.412294178481	 -1854.2750565461151	 471.471	
-5617.449062885486	 -1854.039884246003	 471.271	
-5617.48381410438	 -1853.8221142496336	 470.271	
-5617.516758288923	 -1853.6037507204187	 469.471	
-5617.5532140467985	 -1853.3747134724379	 469.171	
-5617.589793452504	 -1853.1407369137937	 469.071	
-5617.692112413231	 -1852.4905683772638	 466.671	
-5617.813294588218	 -1851.7133588184784	 469.771	
-5617.855614290201	 -1851.4420602072441	 470.871	
-5617.886560704609	 -1851.2392618339218	 469.871	
-5617.919256881971	 -1851.0258323827372	 468.971	
-5617.953965987077	 -1850.802481712701	 468.471	
-5617.990290618023	 -1850.5734385579112	 468.371	
-5618.026829389339	 -1850.3444689600983	 468.171	
-5618.059526241874	 -1850.1316737101545	 467.571	
-5618.088437369695	 -1849.939429905218	 466.071	
-5618.118639297896	 -1849.7538404650668	 464.371	
-5618.145874930161	 -1849.577239703377	 462.571	
-5618.172734282019	 -1849.4017623114137	 460.871	
-5618.201476502654	 -1849.2213023098407	 459.171	
-5618.228283044592	 -1849.04518853892	 457.471	
-5618.256882525934	 -1848.8696666434687	 455.871	
-5618.283402147207	 -1848.6996887003793	 454.171	
-5618.31010071012	 -1848.529148669613	 452.471	
-5618.335483784215	 -1848.3588001966054	 450.871	
-5618.36383379682	 -1848.1832031398717	 449.271	
-5618.396396185816	 -1847.969768104108	 448.971	
-5618.430837159065	 -1847.751350098672	 448.671	
-5618.461269348927	 -1847.5602562296021	 448.071	
-5618.493941812208	 -1847.3524685214911	 447.371	
-5618.532382221171	 -1847.0967733176697	 448.371	
-5618.572528632168	 -1846.8403976871816	 449.171	
-5618.599289496506	 -1846.664916203498	 447.871	
-5618.646884730427	 -1846.3562113642026	 449.971	
-5618.708002003515	 -1845.9728946865691	 448.171	
-5618.740111733806	 -1845.7711663960456	 447.671	
-5618.771047232791	 -1845.5684322436541	 447.171	
-5618.803000386948	 -1845.3610548601587	 446.671	
-5618.8339188144155	 -1845.1583200247906	 446.371	
-5618.862464127642	 -1844.9772171958418	 445.371	
-5618.88884837895	 -1844.8072334341273	 444.371	
-5618.919350234004	 -1844.6155725214437	 443.471	
-5618.9500125525665	 -1844.4127624983535	 443.071	
-5618.991926780508	 -1844.1414465246748	 444.071	
-5619.031650621012	 -1843.8912004465412	 444.771	
-5619.05838846635	 -1843.7101402470055	 443.771	
-5619.092556559023	 -1843.4972882572479	 443.571	
-5619.124954713459	 -1843.284480608199	 443.371	
-5619.155479332926	 -1843.087242708513	 442.971	
-5619.185381452447	 -1842.9010053898212	 442.371	
-5619.37747588806	 -1841.6546071991738	 440.771	
-5619.415151207685	 -1841.4155491752106	 441.071	
-5619.458740191645	 -1841.1386067575631	 442.171	
-5619.4834137552725	 -1840.968100618003	 441.271	
-5619.5214649831705	 -1840.7285529978813	 441.571	
-5619.553437989116	 -1840.5212408764503	 441.371	
-5619.582194851437	 -1840.3290559087789	 440.871	
-5619.616032357557	 -1840.1167592459094	 440.771	
-5619.646507492515	 -1839.9139417613437	 440.471	
-5619.678248441412	 -1839.7171408744784	 440.071	
-5619.712321253702	 -1839.4987068298876	 439.971	
-5619.741340741745	 -1839.3010198571992	 439.671	
-5619.772950516889	 -1839.0992056446162	 439.271	
-5619.803122410878	 -1838.9025226521867	 438.971	
-5619.833470255205	 -1838.7052773552357	 438.671	
-5619.867421399377	 -1838.4924155703875	 438.571	
-5619.89782897999	 -1838.2895954188705	 438.271	
-5619.931352834961	 -1838.0772210761527	 438.071	
-5619.961483627055	 -1837.8805363809217	 437.871	
-5619.993519652659	 -1837.6726572486302	 437.671	
-5620.027576449092	 -1837.4486452216559	 437.871	
-5620.061473133151	 -1837.2357810077845	 437.771	
-5620.091761227986	 -1837.0285824467198	 437.571	
-5620.123686618262	 -1836.826275931762	 437.271	
-5620.157330788032	 -1836.6133368124395	 437.171	
-5620.191564578442	 -1836.389396520744	 437.371	
-5620.181583620875	 -1836.2648417777261	 436.361	
-5620.215506588876	 -1836.0364515484805	 436.461	
-5620.245439228168	 -1835.8447024887628	 436.261	
-5620.275777760008	 -1835.6425144241468	 436.061	
-5620.309667809169	 -1835.4240734368184	 435.961	
-5620.343548125455	 -1835.2056320349197	 435.961	
-5620.37539747593	 -1835.00332291254	 435.961	
-5620.410870436044	 -1834.7692363686363	 436.161	
-5620.441050687776	 -1834.5719848634617	 435.761	
-5620.472945174843	 -1834.3641006274927	 435.761	
-5620.508867528905	 -1834.12395050337	 436.161	
-5620.542435768562	 -1833.9116427215322	 435.961	
-5620.568730747977	 -1833.736143190195	 435.461	
-5620.59916523096	 -1833.5333896946722	 435.261	
-5620.630649916609	 -1833.336577958937	 434.961	
-5620.658755925064	 -1833.1455068488865	 434.761	
-5620.687039581223	 -1832.9638235229238	 434.161	
-5620.71703295174	 -1832.761557249205	 433.961	
-5620.746768423385	 -1832.5753767422825	 433.661	
-5620.778803823678	 -1832.367562680514	 433.561	
-5620.812138826719	 -1832.149604110673	 433.561	
-5620.844335155747	 -1831.9312772025462	 433.761	
-5620.877723301006	 -1831.7176940014951	 433.661	
-5620.915499772637	 -1831.4676154699252	 434.261	
-5620.951212187318	 -1831.2330337889905	 434.461	
-5620.98643738491	 -1831.0045140482512	 434.661	
-5621.020546624232	 -1830.7694165601974	 434.861	
-5621.05192063361	 -1830.5725999875876	 434.661	
-5621.082040630688	 -1830.370403574208	 434.561	
-5621.11175152741	 -1830.1786452925367	 434.161	
-5621.143502165298	 -1829.97138924162	 434.061	
-5621.167900132647	 -1829.8058815337665	 433.561	
-5621.201346842083	 -1829.58799199362	 433.561	
-5621.234901832945	 -1829.3751137184859	 433.561	
-5621.26693078609	 -1829.1561466151977	 433.761	
-5621.311417463508	 -1828.8635312870038	 434.561	
-5621.339649545115	 -1828.6769033122052	 434.261	
-5621.376583866115	 -1828.442757406125	 434.561	
-5621.4085505262055	 -1828.2299981742333	 434.561	
-5621.436532450458	 -1828.043295756199	 434.261	
-5621.464507225642	 -1827.8565930756995	 433.861	
-5621.491940416044	 -1827.6815262273979	 433.461	
-5621.521651981082	 -1827.4848255690615	 433.161	
-5621.549788143899	 -1827.297559920501	 432.961	
-5621.579484244968	 -1827.1008586775004	 432.761	
-5621.614742638772	 -1826.8724046629497	 433.061	
-5621.646597493212	 -1826.6590072217555	 432.961	
-5621.678094357126	 -1826.456683317508	 432.861	
-5621.7097049670665	 -1826.2432117452195	 432.861	
-5621.737654413081	 -1826.0571420869555	 432.661	
-5621.774750469869	 -1825.817490709708	 432.861	
-5621.808262472551	 -1825.5934582936422	 433.061	
-5621.8322692043375	 -1825.4340810066508	 432.561	
-5621.86400144075	 -1825.2262548436759	 432.461	
-5621.896958729409	 -1825.0138573983438	 432.461	
-5621.924861394535	 -1824.8277859511356	 432.161	
-5621.956868329376	 -1824.6082493976028	 432.261	
-5621.999156234733	 -1824.326183511113	 432.961	
-5622.028616013756	 -1824.140624856897	 432.761	
-5622.060293370083	 -1823.9327965338045	 432.661	
-5622.091793549055	 -1823.7193209346667	 432.761	
-5622.121403268388	 -1823.517040674813	 432.661	
-5622.154695087612	 -1823.3041514178121	 432.661	
-5622.182431607007	 -1823.1230154849766	 432.361	
-5622.210501414976	 -1822.9308056170319	 432.261	
-5622.241435996575	 -1822.7289643386391	 432.061	
-5622.265814270202	 -1822.5635211516721	 431.561	
-5622.297198373059	 -1822.3556169104259	 431.661	
-5622.328335557008	 -1822.1538480450438	 431.461	
-5622.3597463853375	 -1821.9465786984185	 431.561	
-5622.389536178978	 -1821.7543182783406	 431.261	
-5622.413191460016	 -1821.594862931065	 430.761	
-5622.442559014375	 -1821.4030908718878	 430.561	
-5622.468739806803	 -1821.216501081601	 430.361	
-5622.5021140257595	 -1821.0030454892524	 430.361	
-5622.527890460046	 -1820.833102179316	 430.061	
-5622.551461638848	 -1820.6792191618342	 429.461	
-5622.579670916419	 -1820.480870247164	 429.461	
-5622.61974012635	 -1820.2211383171045	 429.861	
-5622.64979512007	 -1820.0178017054668	 429.861	
-5622.682300495429	 -1819.8053219506332	 429.861	
-5622.719188144679	 -1819.5607205667636	 430.261	
-5622.757935179491	 -1819.3049226089793	 430.761	
-5622.789329443223	 -1819.086501978052	 430.861	
-5622.826033132596	 -1818.8524104028363	 431.061	
-5622.862879970666	 -1818.6015983592197	 431.461	
-5622.888806079955	 -1818.4255162869358	 431.161	
-5622.918094279475	 -1818.2343749747918	 430.961	
-5622.949571637628	 -1818.02096375357	 430.961	
-5622.973054524482	 -1817.8670773309261	 430.661	
-5623.004057326143	 -1817.659727898636	 430.461	
-5607.491052021137	 -1917.2928961342732	 507.409	
-5607.5331990868735	 -1917.0423819485081	 507.409	
-5607.5829666223535	 -1916.7500106183782	 506.809	
-5607.627191259533	 -1916.4839316214004	 506.609	
-5607.671592926461	 -1916.2172910656527	 506.509	
-5607.711564041426	 -1915.977321445007	 506.509	
-5607.769683168403	 -1915.6320879578452	 505.509	
-5607.833142217008	 -1915.247982469804	 504.109	
-5607.880922968023	 -1914.9712440249243	 503.809	
-5607.918936047374	 -1914.7418944769133	 503.809	
-5607.954850782007	 -1914.5237286497465	 504.009	
-5607.988214438142	 -1914.3209746063847	 504.509	
-5607.996048222132	 -1914.2791924431301	 506.409	
-5608.065920799867	 -1913.857860779443	 504.909	
-5608.196917658936	 -1913.0811132951262	 499.309	
-5608.2433665689405	 -1912.7926861082308	 498.809	
-5608.283168524819	 -1912.552707234761	 498.909	
-5608.318231558326	 -1912.3461740583912	 499.209	
-5608.347943938461	 -1912.1647383226095	 499.809	
-5608.380869505913	 -1911.9731316157079	 500.309	
-5608.410737477158	 -1911.7861188284785	 500.809	
-5608.448600083823	 -1911.556761166728	 501.009	
-5608.48792823326	 -1911.317264325686	 501.009	
-5608.527710265174	 -1911.0829333358354	 501.109	
-5608.5778770598645	 -1910.7745248080723	 500.309	
-5608.632203981037	 -1910.4487608893228	 499.509	
-5608.677802473691	 -1910.1776154047516	 499.209	
-5608.725271939346	 -1909.895844949891	 498.809	
-5608.771006478898	 -1909.6191214649104	 498.409	
-5608.819546468681	 -1909.3195741458496	 497.809	
-5608.86926306191	 -1909.0266913094017	 497.209	
-5608.917415564809	 -1908.7289002299185	 496.509	
-5608.962918277393	 -1908.4577494679459	 496.209	
-5609.000071858148	 -1908.2394604471456	 496.409	
-5609.0435774391035	 -1907.9726444961912	 496.109	
-5609.090165461024	 -1907.6843526818288	 495.709	
-5609.132766947117	 -1907.4353856767996	 495.609	
-5609.1812030942365	 -1907.1364677360264	 494.909	
-5609.237169383412	 -1906.7956871388624	 493.809	
-5609.291261010481	 -1906.4705451323562	 492.809	
-5609.340393979949	 -1906.1781382855336	 492.209	
-5609.386329246771	 -1905.900917994134	 491.809	
-5609.419363915057	 -1905.6987812593184	 492.109	
-5609.461075285616	 -1905.4426581502332	 492.009	
-5609.500352971494	 -1905.2082360646355	 492.009	
-5609.539428899856	 -1904.9743743042404	 492.109	
-5609.583359383945	 -1904.7021236047262	 491.709	
-5609.6389947686075	 -1904.3669101961798	 490.509	
-5609.6880015089	 -1904.074496439803	 489.809	
-5609.7260717900635	 -1903.8390577189762	 490.009	
-5609.775587038247	 -1903.5355652850706	 489.109	
-5609.818928887437	 -1903.2750237689554	 488.909	
-5609.85654799143	 -1903.0400687508397	 488.909	
-5609.899483121652	 -1902.7850266443945	 488.709	
-5609.940692671232	 -1902.535032730154	 488.609	
-5609.983949140283	 -1902.273852034955	 488.309	
-5610.021329506655	 -1902.0394555845867	 488.409	
-5610.058542963192	 -1901.8150135126286	 488.509	
-5610.1041959030745	 -1901.5327649647459	 488.009	
-5610.186063229851	 -1901.0376342839004	 484.609	
-5610.202797570056	 -1900.9363555117857	 486.409	
-5610.2560854524545	 -1900.6116783899	 485.209	
-5610.291554876577	 -1900.3929183760106	 485.609	
-5610.328125384598	 -1900.1745341416784	 485.809	
-5610.36152061264	 -1899.966959550897	 486.209	
-5610.400534781968	 -1899.7325232827798	 486.309	
-5610.439655658136	 -1899.4874953215362	 486.209	
-5610.478424500076	 -1899.2529826051793	 486.209	
-5610.515505287718	 -1899.0241550290211	 486.409	
-5610.573398566747	 -1898.6723087534995	 484.809	
-5610.634576178936	 -1898.2996957865496	 483.009	
-5610.669751619281	 -1898.0814915673022	 483.309	
-5610.71686286193	 -1897.7935461809998	 482.609	
-5610.766038572221	 -1897.4950494006105	 481.609	
-5610.808906042311	 -1897.240066804727	 481.309	
-5610.846232538797	 -1897.0050973167367	 481.409	
-5610.888780159369	 -1896.7443869930378	 481.009	
-5610.931758568073	 -1896.4838262862718	 480.609	
-5610.972794051154	 -1896.2282395587783	 480.409	
-5611.012339356241	 -1895.9821558750975	 480.309	
-5611.05319917576	 -1895.7321438508704	 480.109	
-5611.09571919147	 -1895.4764449313031	 479.809	
-5611.136924057443	 -1895.2209307222483	 479.509	
-5611.261106929479	 -1894.8671692488488	 478.889	
-5611.3019120643585	 -1894.617152515359	 478.689	
-5611.332774121241	 -1894.4200406522652	 479.189	
-5611.371671072998	 -1894.1800127360225	 479.089	
-5611.406810624795	 -1893.9562218617623	 479.389	
-5611.441759880802	 -1893.7373702404004	 479.589	
-5611.476406242532	 -1893.5296700440786	 479.989	
-5611.515259178279	 -1893.289639955141	 479.889	
-5611.5502116114885	 -1893.0714230978917	 480.189	
-5611.5851209432885	 -1892.8525695410376	 480.489	
-5611.623383208144	 -1892.6185998371316	 480.689	
-5611.660342910104	 -1892.3891939442244	 480.689	
-5611.697247321953	 -1892.1547727782342	 480.789	
-5611.73182625653	 -1891.9470690733572	 481.389	
-5611.767085128687	 -1891.7233484396374	 481.489	
-5611.809685096547	 -1891.4564850289075	 480.989	
-5611.846766951437	 -1891.222136808738	 480.989	
-5611.883517306271	 -1890.998303625979	 481.289	
-5611.917601631059	 -1890.7904473301753	 481.889	
-5611.952807044944	 -1890.566724209103	 482.089	
-5611.9894470499175	 -1890.3372386132326	 482.189	
-5612.028364851535	 -1890.0972758271544	 482.189	
-5612.0652053662325	 -1889.8678641680767	 482.389	
-5612.1016233461105	 -1889.6389382018046	 482.489	
-5612.142125646168	 -1889.388271960496	 482.289	
-5612.185217369883	 -1889.1166127601857	 481.589	
-5612.225503824366	 -1888.866506435467	 481.389	
-5612.262649239519	 -1888.6315911299196	 481.389	
-5612.302910703511	 -1888.3814836068723	 481.189	
-5612.341871595639	 -1888.1359402896644	 480.989	
-5612.392107237989	 -1887.8273458023007	 479.789	
-5612.422742183625	 -1887.6352358714214	 480.589	
-5612.4554639426915	 -1887.433209703984	 481.289	
-5612.488247571668	 -1887.2243349563746	 481.889	
-5612.524540716083	 -1886.995403129982	 482.089	
-5612.5690584708655	 -1886.7242621486903	 481.489	
-5612.607712574834	 -1886.478639962813	 481.189	
-5612.6464398496355	 -1886.2386678991295	 481.189	
-5612.684743770265	 -1885.9991816160402	 481.189	
-5612.721390603188	 -1885.769760705226	 481.589	
-5612.758110783649	 -1885.5297490583966	 481.389	
-5612.80251248105	 -1885.257967870302	 480.689	
-5612.836744774577	 -1885.045234747047	 481.289	
-5612.875536723312	 -1884.7996835444994	 481.089	
-5612.912261988699	 -1884.5646842512351	 481.289	
-5612.9584404688185	 -1884.2822730304079	 480.189	
-5612.9969514428485	 -1884.032266933091	 479.889	
-5613.041269543831	 -1883.7604816400885	 479.189	
-5613.081959175359	 -1883.4987242801888	 478.689	
-5613.119860896776	 -1883.2703830446335	 478.789	
-5613.15195512936	 -1883.0681984491462	 479.689	
-5613.198535734914	 -1882.774706402442	 478.289	
-5613.237080137336	 -1882.5347255815104	 478.589	
-5613.273862675593	 -1882.2947817992335	 478.289	
-5613.307742104991	 -1882.0819677105055	 478.989	
-5613.348077606243	 -1881.8313576291418	 478.589	
-5613.390413139596	 -1881.5695578855552	 477.889	
-5613.430122851114	 -1881.3199944090104	 477.689	
-5613.468891953996	 -1881.0694950525851	 477.289	
-5613.5212670599	 -1880.7442636348253	 475.089	
-5613.557312329522	 -1880.5203319649268	 475.289	
-5613.587952701178	 -1880.3176934584653	 476.289	
-5613.623848817496	 -1880.0993364865667	 476.689	
-5613.6660323573715	 -1879.832518035856	 475.989	
-5613.710408980155	 -1879.5502062699206	 474.489	
-5613.750426102512	 -1879.3001513697925	 474.289	
-5613.787200606815	 -1879.0590031813704	 474.089	
-5613.825022477789	 -1878.8250759778125	 474.289	
-5613.86114240165	 -1878.5962006946645	 474.389	
-5613.897251529217	 -1878.3673249233893	 474.489	
-5613.937395602358	 -1878.1167058021801	 474.089	
-5613.979343500226	 -1877.8554579402646	 473.389	
-5614.005854081296	 -1877.6789357802024	 475.289	
-5614.057591356638	 -1877.3541803906182	 472.389	
-5614.0955190424	 -1877.1196878703754	 472.489	
-5614.131370891498	 -1876.8913703370397	 472.789	
-5614.16981250906	 -1876.6508144952127	 472.589	
-5614.205731343794	 -1876.4162843701997	 472.489	
-5614.243961818451	 -1876.1762888803003	 472.289	
-5614.2838054046515	 -1875.9262259209918	 471.889	
-5614.3217882539575	 -1875.6861546428286	 471.689	
-5614.36179419453	 -1875.4355290736166	 470.989	
-5614.401722973533	 -1875.1798888683436	 470.289	
-5614.437447552359	 -1874.9509311725014	 470.389	
-5614.471762366248	 -1874.7321146726645	 470.989	
-5614.5076893136165	 -1874.5032306842697	 471.389	
-5614.547634275543	 -1874.2526023218202	 470.989	
-5614.585656187971	 -1874.0069518664154	 470.289	
-5614.6253881941975	 -1873.7568837977162	 469.689	
-5614.6634874093015	 -1873.5168822824223	 469.489	
-5614.700819445687	 -1873.2828679070567	 469.489	
-5614.73686540327	 -1873.053419383377	 469.689	
-5614.773020779332	 -1872.8183949795875	 469.889	
-5614.810730089922	 -1872.5838921706234	 470.189	
-5614.969594340308	 -1871.5774660405712	 466.289	
-5614.999635744693	 -1871.3747375371183	 467.789	
-5615.033634603048	 -1871.1608532167975	 468.989	
-5615.067436978357	 -1870.9475299664814	 470.289	
-5615.100973475495	 -1870.7297539707292	 471.089	
-5615.138805963526	 -1870.495321029052	 471.689	
-5615.172813247684	 -1870.2708458011334	 472.189	
-5615.210516634711	 -1870.0307619997732	 471.989	
-5615.24588173097	 -1869.8073690219326	 472.989	
-5615.279777733049	 -1869.5891038340415	 474.289	
-5615.3174474420475	 -1869.3490185408473	 474.089	
-5615.353307525181	 -1869.1195618282406	 474.389	
-5615.389156766476	 -1868.8901046432436	 474.989	
-5615.4262662631445	 -1868.6560801617627	 475.489	
-5615.464113733004	 -1868.4160673065494	 475.689	
-5615.501538696529	 -1868.1765409951306	 475.089	
-5615.539138642538	 -1867.936452615481	 474.889	
-5615.573178096136	 -1867.7070333071797	 475.489	
-5615.610303921113	 -1867.4780199744678	 476.589	
-5615.652354721618	 -1867.2057443594	 473.089	
-5615.689270356746	 -1866.9772914736466	 474.289	
-5615.723001857051	 -1866.758384791814	 476.089	
-5615.759001434923	 -1866.5184083407132	 476.289	
-5615.796407429245	 -1866.2838916249377	 476.389	
-5615.833951204822	 -1866.044435189789	 476.389	
-5615.87125921548	 -1865.8049038198858	 476.889	
-5615.906727892676	 -1865.5753654362406	 477.589	
-5615.944423300599	 -1865.335345887743	 478.289	
-5615.979980254497	 -1865.1002314021787	 478.989	
-5616.019144071784	 -1864.8557180333084	 478.589	
-5616.056803976699	 -1864.6156969241836	 478.689	
-5616.093817502663	 -1864.3760881422309	 478.889	
-5616.131453738605	 -1864.136066001176	 478.989	
-5616.168854061759	 -1863.8959689701262	 479.089	
-5616.206242525933	 -1863.6558714285602	 478.689	
-5616.243656893306	 -1863.4164093572922	 479.389	
-5616.333116244582	 -1863.1250143544257	 478.999	
-5616.370468297963	 -1862.8849140392917	 479.799	
-5616.407622227768	 -1862.6453748572424	 479.799	
-5616.445174734041	 -1862.4053478576573	 479.799	
-5616.48073591278	 -1862.1652874203544	 479.899	
-5616.519530041104	 -1861.9206919058056	 479.999	
-5616.556860596945	 -1861.6812250357605	 479.799	
-5616.5941413134215	 -1861.4411216943868	 479.499	
-5616.631410170983	 -1861.2010178488674	 479.299	
-5616.668705296026	 -1860.9615494582868	 479.499	
-5616.7059504722465	 -1860.7214446045116	 479.599	
-5616.742773493617	 -1860.4818266436032	 479.399	
-5616.780219223688	 -1860.241795069518	 478.999	
-5616.817324750969	 -1860.0072637246783	 478.499	
-5616.854336842759	 -1859.7677185475607	 478.099	
-5616.889745997304	 -1859.5382413845578	 477.599	
-5616.9252859005055	 -1859.3038247293218	 476.999	
-5616.962038960811	 -1859.0642038820718	 476.699	
-5617.001273557776	 -1858.8185523335856	 476.999	
-5617.037900412258	 -1858.5845054398146	 476.799	
-5617.073169876371	 -1858.3500126921615	 476.099	
-5617.108634717855	 -1858.1261819239105	 475.399	
-5617.1454140863525	 -1857.8915718828405	 474.599	
-5617.180324511745	 -1857.6625785243032	 473.899	
-5617.215634267597	 -1857.433097222139	 473.499	
-5617.254701624342	 -1857.1824287884417	 474.299	
-5617.289988714859	 -1856.9529465448056	 473.899	
-5617.323308284753	 -1856.7346560817125	 472.599	
-5617.356069435301	 -1856.521791758071	 470.999	
-5617.394480997369	 -1856.2827586772912	 470.999	
-5617.42982473153	 -1856.0476997866908	 470.999	
-5617.4688207556665	 -1855.797028327264	 471.599	
-5617.50571244994	 -1855.5624876321847	 471.999	
-5617.5425055288	 -1855.322933335256	 472.299	
-5617.575517040058	 -1855.1151536685236	 470.399	
-5617.6069479688	 -1854.906854600254	 469.199	
-5617.649554676878	 -1854.629980287257	 471.199	
-5617.680233145566	 -1854.4276687421245	 469.599	
-5617.721232527573	 -1854.1608623125567	 471.199	
-5617.755959546946	 -1853.942449700882	 470.399	
-5617.792993536879	 -1853.6973914412533	 470.699	
-5617.829880050311	 -1853.4572716085943	 470.899	
-5617.864800233478	 -1853.2389317082796	 470.099	
-5617.895364817384	 -1853.0428284931606	 468.299	
-5617.926667437683	 -1852.8338900287624	 467.399	
-5617.961244624766	 -1852.6104618262984	 466.699	
-5617.992568026564	 -1852.4021585332334	 465.799	
-5618.0212039726675	 -1852.2216237511982	 463.599	
-5618.104427493798	 -1851.683505861828	 466.399	
-5618.170093337871	 -1851.2567090595703	 464.999	
-5618.215070760173	 -1850.9576319981957	 467.499	
-5618.316664381978	 -1850.3035412757865	 465.899	
-5618.343611313094	 -1850.1324365792686	 463.699	
-5618.37058984204	 -1849.9513799792828	 461.999	
-5618.401523041451	 -1849.7492087342105	 460.999	
-5618.434163420078	 -1849.5357700629338	 460.399	
-5618.451898052191	 -1849.418308328991	 456.799	
-5618.49604150543	 -1849.1358027895042	 458.599	
-5618.526940825771	 -1848.9336301726964	 457.799	
-5618.553839743901	 -1848.7625234223922	 455.899	
-5618.579013759225	 -1848.5920962127352	 454.099	
-5618.607508905976	 -1848.4115553061256	 452.899	
-5618.636496312697	 -1848.2249516080249	 451.699	
-5618.6634994858705	 -1848.0489050264364	 450.199	
-5618.692159377293	 -1847.867801365138	 448.699	
-5618.721118251361	 -1847.6706094871522	 448.099	
-5618.755370369317	 -1847.4527460915967	 447.899	
-5618.78643227673	 -1847.2437983718105	 447.599	
-5618.818915336113	 -1847.0365656631259	 447.099	
-5618.851252093686	 -1846.8236840757893	 446.899	
-5618.883989158406	 -1846.6103141729157	 446.599	
-5618.916941859965	 -1846.397017820663	 446.299	
-5618.949250635101	 -1846.1841351253265	 445.999	
-5618.980211954438	 -1845.9813956910837	 445.599	
-5619.008881366206	 -1845.7947142228434	 444.599	
-5619.0372731739535	 -1845.6141688717707	 443.599	
-5619.066549913059	 -1845.4164856331222	 443.199	
-5619.100476450562	 -1845.1985440689944	 443.099	
-5619.133452497828	 -1844.9796707010878	 442.999	
-5619.158283187457	 -1844.819751706132	 441.499	
-5619.199881121597	 -1844.5532934360783	 442.699	
-5619.240548182414	 -1844.2759520396003	 443.999	
-5619.270936570969	 -1844.0792719571855	 443.399	
-5619.31860637202	 -1843.7706250714039	 445.399	
-5619.349651567312	 -1843.5673197000467	 445.099	
-5619.372551775995	 -1843.4123823729276	 443.599	
-5619.483086037679	 -1842.6936749698416	 444.699	
-5619.51533509739	 -1842.4857983688398	 444.599	
-5619.532674180522	 -1842.3682562008487	 442.299	
-5619.566689833789	 -1842.1503828282887	 442.199	
-5619.610309592632	 -1841.862847337811	 443.599	
-5619.639311560488	 -1841.6700970201198	 443.099	
-5619.667776229964	 -1841.48961904929	 442.099	
-5619.692388938857	 -1841.3246829643103	 441.099	
-5619.7266223852475	 -1841.1006713374545	 441.299	
-5619.75910882972	 -1840.8872914100104	 441.199	
-5619.7910969247805	 -1840.6799736262108	 440.999	
-5619.819947414812	 -1840.4822091735086	 440.599	
-5619.852143575295	 -1840.274964489769	 440.299	
-5619.88451497052	 -1840.0671574420505	 440.099	
-5619.913077847097	 -1839.875528372532	 439.799	
-5619.945469275541	 -1839.6615105863693	 439.599	
-5619.97577747784	 -1839.4698352305265	 439.099	
-5620.0082057571335	 -1839.2465017090426	 439.299	
-5620.047767013271	 -1838.990663186386	 439.899	
-5620.0724788120815	 -1838.8251619251982	 438.999	
-5620.103056726529	 -1838.6279846787374	 438.599	
-5620.136680237438	 -1838.410030673165	 438.699	
-5620.168972358647	 -1838.2022203462107	 438.499	
-5620.197461762752	 -1838.0105885157593	 438.099	
-5620.226203421115	 -1837.8128201879463	 437.699	
-5620.257985130525	 -1837.6110713661246	 437.599	
-5620.297577940029	 -1837.3502908906926	 438.299	
-5620.32614224692	 -1837.1636699805726	 437.799	
-5620.348763090046	 -1837.0142993514892	 436.699	
-5620.381070637546	 -1836.8009124330988	 436.599	
-5620.41164140719	 -1836.5981576866145	 436.499	
-5620.4436309855855	 -1836.3902705443893	 436.199	
-5620.473775544157	 -1836.1880035129877	 436.099	
-5620.5311516565025	 -1835.906928886046	 436.809	
-5620.565362237387	 -1835.6829807921881	 436.809	
-5620.595404736772	 -1835.486286471982	 436.609	
-5620.627347470652	 -1835.2783970979767	 436.509	
-5620.659281369845	 -1835.0705073624142	 436.209	
-5620.687831318315	 -1834.8783086019862	 436.009	
-5620.714466844267	 -1834.697304376702	 435.709	
-5620.744764629089	 -1834.5050584376943	 435.209	
-5620.7726281205505	 -1834.319483460686	 434.709	
-5620.802573489084	 -1834.12215127482	 434.609	
-5620.834867196523	 -1833.9137711193125	 434.509	
-5620.865205851817	 -1833.705999492169	 434.409	
-5620.895126396715	 -1833.5086663557183	 434.109	
-5620.9289732816005	 -1833.2908500699564	 434.109	
-5620.959102731977	 -1833.0935898616538	 434.009	
-5620.991309029289	 -1832.874621987663	 434.009	
-5621.022704520271	 -1832.6734264204326	 433.809	
-5621.056541106626	 -1832.4493989159153	 433.909	
-5621.091902183101	 -1832.215300159062	 434.309	
-5621.124772298343	 -1831.990341909666	 434.509	
-5621.154597543929	 -1831.799215757685	 434.109	
-5621.184509219812	 -1831.59630567941	 434.009	
-5621.210660812347	 -1831.4263714359126	 433.409	
-5621.242724295865	 -1831.2129748334883	 433.509	
-5621.272586705054	 -1831.0162734929531	 433.209	
-5621.3026915072005	 -1830.8134357833912	 433.109	
-5621.330713534683	 -1830.6323052107823	 432.609	
-5621.371830801285	 -1830.360314721893	 433.409	
-5621.400237540518	 -1830.1687448359567	 433.209	
-5621.435672142264	 -1829.9340798071928	 433.409	
-5621.4677131853605	 -1829.7213164204566	 433.409	
-5621.497698448383	 -1829.5240506301884	 433.309	
-5621.527449888842	 -1829.3267110291881	 433.109	
-5621.560884779268	 -1829.1088137437412	 433.109	
-5621.590662440458	 -1828.9121091447332	 433.009	
-5621.619216660467	 -1828.7137655316287	 432.809	
-5621.648731186194	 -1828.5231963534936	 432.609	
-5621.680850466866	 -1828.3092328383332	 432.609	
-5621.714303815288	 -1828.0857599587769	 432.709	
-5621.744040243843	 -1827.8890538099781	 432.509	
-5621.777593847018	 -1827.6705918417297	 432.509	
-5621.801921086272	 -1827.5050762070298	 432.109	
-5621.835809055953	 -1827.2755394453523	 432.209	
-5621.871147820543	 -1827.0415048161426	 432.609	
-5621.893396639974	 -1826.8976960107043	 431.809	
-5621.921441189101	 -1826.7060477784723	 431.609	
-5621.951487330351	 -1826.5082151520992	 431.409	
-5621.988494467671	 -1826.26354560208	 431.609	
-5622.021566850861	 -1826.045569586173	 431.809	
-5622.051873284671	 -1825.8422356109	 431.809	
-5622.083101252606	 -1825.6298809629957	 431.809	
-5622.122115836704	 -1825.3796610422244	 432.309	
-5622.146651429686	 -1825.208642357783	 431.909	
-5622.176271965007	 -1825.011931857205	 431.709	
-5622.202436938138	 -1824.8358527792136	 431.409	
-5622.239483392142	 -1824.596191529159	 431.709	
-5622.2730518741655	 -1824.367212108768	 431.809	
-5622.3010766215475	 -1824.1799362374702	 431.509	
-5622.325102767533	 -1824.0149786809366	 431.209	
-5622.369177779141	 -1823.733489761679	 431.809	
-5622.404813374216	 -1823.4933862411795	 432.209	
-5622.439744765016	 -1823.2592714703085	 432.509	
-5622.475073412093	 -1823.0246673865427	 432.809	
-5622.497544936075	 -1822.8697800626653	 432.209	
-5622.525430875372	 -1822.6781263381083	 432.009	
-5622.551454831006	 -1822.5076178225704	 431.609	
-5622.575367752658	 -1822.3482318966276	 431.009	
-5622.601392541938	 -1822.1715137890026	 430.809	
-5622.627216651348	 -1822.0015668591109	 430.309	
-5622.653090758902	 -1821.826046149074	 430.009	
-5622.684916355292	 -1821.6120718916377	 430.009	
-5622.714110384017	 -1821.4208562840472	 429.909	
-5622.743633500719	 -1821.2185666262083	 429.809	
-5622.773220550692	 -1821.0268614456722	 429.709	
-5622.804883657871	 -1820.8078746904782	 429.809	
-5622.838121077778	 -1820.5894005702512	 429.909	
-5622.867329256264	 -1820.3926099466023	 429.709	
-5622.902746564982	 -1820.1580740844533	 430.109	
-5622.939897521247	 -1819.9073302186869	 430.409	
-5622.968843002588	 -1819.7166743691894	 430.409	
-5623.0059268628975	 -1819.4652941434144	 430.709	
-5623.044776558713	 -1819.204550393997	 431.209	
-5623.074155297944	 -1819.0078310213764	 431.209	
-5623.101792566881	 -1818.821110028305	 431.009	
-5623.13161598619	 -1818.6183276082445	 431.009	
-5623.159186727268	 -1818.4371795005734	 430.709	
-5623.182966841781	 -1818.2777887463162	 430.209	
-5623.212438906373	 -1818.0860790907836	 429.909	
-5623.238500430327	 -1817.8994799077973	 429.909	
-5623.2730681209405	 -1817.6702934057398	 430.109	
-5623.293400276465	 -1817.537743766765	 429.409	
-5607.913239713859	 -1916.7482881172218	 504.555	
-5607.951127425704	 -1916.518859604536	 504.755	
-5607.999726464077	 -1916.2204460487235	 503.955	
-5608.032065186742	 -1916.0173108425658	 504.455	
-5608.079146890931	 -1915.7290342591468	 504.155	
-5608.134405731411	 -1915.3878208125923	 503.155	
-5608.169743761545	 -1915.1750744460055	 503.455	
-5608.226686797168	 -1914.8288116197816	 502.455	
-5608.275767700886	 -1914.5243310795454	 501.755	
-5608.316061918988	 -1914.2788478794578	 501.755	
-5608.347905925526	 -1914.0761939678196	 502.055	
-5608.384195815814	 -1913.8525184021066	 502.355	
-5608.426744172108	 -1913.5909086044064	 502.055	
-5608.483352284964	 -1913.2445644423017	 501.155	
-5608.5132790081125	 -1913.0575481129113	 501.355	
-5608.557314532973	 -1912.791449306999	 501.255	
-5608.597913202092	 -1912.5404607393532	 501.255	
-5608.638055839724	 -1912.289320491627	 501.155	
-5608.667362370178	 -1912.1083641065682	 501.755	
-5608.724838373797	 -1911.7504519381446	 500.555	
-5608.787839545402	 -1911.3718938870459	 499.155	
-5608.838209039748	 -1911.0579000374216	 498.455	
-5608.872240781188	 -1910.8491454720047	 498.655	
-5608.92678727007	 -1910.518431234273	 497.955	
-5608.96705381217	 -1910.262982224701	 497.655	
-5609.015457164847	 -1909.9639884172386	 497.055	
-5609.0703320728	 -1909.6277701959089	 496.055	
-5609.120421174076	 -1909.3193471507773	 495.255	
-5609.162144934024	 -1909.0637868795914	 495.155	
-5609.213102980321	 -1908.7425266050436	 494.355	
-5609.2675364138695	 -1908.4124413679826	 493.355	
-5609.290661699409	 -1908.2688527101582	 494.255	
-5609.330581840415	 -1908.0177016918556	 494.255	
-5609.369050435914	 -1907.7773256275152	 494.155	
-5609.406543596878	 -1907.548511729838	 494.155	
-5609.446426195182	 -1907.2973589311569	 494.155	
-5609.497133619193	 -1906.9823057274425	 493.455	
-5609.536499965271	 -1906.743501412862	 493.455	
-5609.580511255734	 -1906.4706112329907	 493.055	
-5609.616774754575	 -1906.2357656879292	 493.055	
-5609.660625926678	 -1905.9690867570807	 492.555	
-5609.7087664301025	 -1905.6657009211488	 491.955	
-5609.756723355184	 -1905.3722694164521	 491.255	
-5609.81296445392	 -1905.0259711907192	 490.155	
-5609.881831230693	 -1904.6045087956745	 488.055	
-5609.90293713115	 -1904.4709034632947	 489.055	
-5609.942370157827	 -1904.2315318544106	 489.155	
-5609.986209279241	 -1903.9536194987086	 488.655	
-5610.023903416138	 -1903.7192956186095	 488.755	
-5610.059460038216	 -1903.49488483774	 488.955	
-5610.1037005730905	 -1903.2171211426758	 488.455	
-5610.157154803446	 -1902.8924424905322	 487.455	
-5610.191214302376	 -1902.6737906630356	 487.555	
-5610.235027509355	 -1902.4015256431335	 487.255	
