-5620.254909915038	 -1843.3675558069876	 44.2093	
-5620.287440534986	 -1843.1597342670004	 44.189299999999996	
-5620.317602026335	 -1842.9735470906742	 44.109300000000005	
-5620.345813120183	 -1842.7879672795498	 44.0493	
-5620.3795856464085	 -1842.586161858387	 43.9893	
-5620.409808697794	 -1842.3943989580239	 43.939299999999996	
-5620.44199018713	 -1842.1920764287768	 43.9093	
-5620.473938341625	 -1841.9896797638955	 43.869299999999996	
-5620.505836565059	 -1841.7934931331904	 43.8293	
-5620.5377270070385	 -1841.5973061033826	 43.7693	
-5620.573845200227	 -1841.3676528118076	 43.7893	
-5620.615147841151	 -1841.102358600609	 43.8893	
-5620.647276198844	 -1840.900033575141	 43.859300000000005	
-5620.684753268143	 -1840.6714568559087	 43.859300000000005	
-5620.713470293014	 -1840.484822840883	 43.8093	
-5620.747126027913	 -1840.2724254523234	 43.7893	
-5620.780956597237	 -1840.0594655595607	 43.7793	
-5620.816474950925	 -1839.842082270945	 43.7893	
-5620.85032810317	 -1839.6297572501117	 43.7693	
-5620.885561230771	 -1839.4116635530092	 43.7693	
-5620.915964841625	 -1839.2143940590872	 43.7393	
-5620.948015605487	 -1839.0120653821805	 43.7093	
-5620.981529095514	 -1838.8052395345817	 43.6793	
-5621.006059943884	 -1838.6502351808629	 43.5793	
-5621.037825433074	 -1838.4540420205137	 43.5393	
-5621.071696763174	 -1838.236139657139	 43.5293	
-5621.114471461058	 -1837.975729946194	 43.5993	
-5621.146512814237	 -1837.7740346068633	 43.5793	
-5621.17827919117	 -1837.5716295010582	 43.5593	
-5621.2101556348825	 -1837.3642853025917	 43.5493	
-5621.242053723131	 -1837.1675275343887	 43.5193	
-5621.277628563891	 -1836.9495757853874	 43.5193	
-5621.313162343775	 -1836.7210367837706	 43.5293	
-5621.34308081303	 -1836.5348377859302	 43.4893	
-5621.378177172464	 -1836.3167374467491	 43.4893	
-5621.408197450807	 -1836.125599013703	 43.4593	
-5621.442074051711	 -1835.91270427425	 43.4293	
-5621.4738056064525	 -1835.7109313963144	 43.4193	
-5621.508790997863	 -1835.4984037039974	 43.3993	
-5621.539337020083	 -1835.2956264389957	 43.3893	
-5621.4336505379015	 -1835.2244208981776	 43.3723	
-5621.465350310465	 -1835.0226493593348	 43.3623	
-5621.497482289248	 -1834.8141788138432	 43.3623	
-5621.532766166224	 -1834.5967870135992	 43.3723	
-5621.562972683892	 -1834.3995115567905	 43.3223	
-5621.594936775894	 -1834.1922377458568	 43.3223	
-5621.626552126522	 -1833.9898286130867	 43.3223	
-5621.663777858365	 -1833.7556648304658	 43.3223	
-5621.699312510259	 -1833.53277004597	 43.3323	
-5621.7292507313605	 -1833.3354192466018	 43.3123	
-5621.762522786176	 -1833.1285846704113	 43.3123	
-5621.794319854888	 -1832.9262471029324	 43.2923	
-5621.827899820595	 -1832.7077010079013	 43.3123	
-5621.861737821405	 -1832.4898637186616	 43.2923	
-5621.893438241005	 -1832.2930992327065	 43.2823	
-5621.932667871259	 -1832.0372228074623	 43.3523	
-5621.9659552662115	 -1831.8248114594742	 43.3223	
-5622.005021535097	 -1831.5800824386959	 43.3623	
-5622.036640982096	 -1831.3727300282878	 43.3723	
-5622.070488710974	 -1831.1493159713598	 43.3923	
-5622.1037835013585	 -1830.9474891073344	 43.3723	
-5622.135333660948	 -1830.7394999007852	 43.3723	
-5622.166849380842	 -1830.5377201956917	 43.3523	
-5622.202195842617	 -1830.3141830788477	 43.3623	
-5622.233626500263	 -1830.1179767494602	 43.3423	
-5622.267014036152	 -1829.9049994853654	 43.3223	
-5622.29550090428	 -1829.717788057425	 43.2823	
-5622.324852652334	 -1829.527129518535	 43.262299999999996	
-5622.356142608526	 -1829.3358602039234	 43.2423	
-5622.386203877096	 -1829.1330017300686	 43.222300000000004	
-5622.4177042877245	 -1828.9418051024775	 43.2023	
-5622.449169366869	 -1828.7338123676655	 43.2023	
-5622.480537178426	 -1828.5376031287922	 43.1823	
-5622.514082055781	 -1828.3246962391827	 43.1823	
-5622.5454987613675	 -1828.122912152967	 43.1623	
-5622.578682038595	 -1827.9049192567386	 43.1623	
-5622.608199721134	 -1827.724281311974	 43.1223	
-5622.643300177716	 -1827.4957266209817	 43.1423	
-5622.677089885626	 -1827.2773170506032	 43.1623	
-5622.704714488725	 -1827.1016650571107	 43.1123	
-5622.735748512853	 -1826.9047438079053	 43.1023	
-5622.767515464787	 -1826.702468265528	 43.0923	
-5622.80028367166	 -1826.4955473982652	 43.0723	
-5622.830207547358	 -1826.29889392456	 43.0723	
-5622.863549873543	 -1826.0909210706545	 43.0523	
-5622.896580614672	 -1825.8784983847775	 43.0523	
-5622.930072662042	 -1825.660012368243	 43.0623	
-5622.967069334148	 -1825.4153183469416	 43.1123	
-5623.004113410411	 -1825.1812094652453	 43.1423	
-5623.03318450701	 -1824.9954817747214	 43.1023	
-5623.069800294763	 -1824.7618609735848	 43.1323	
-5623.099611241024	 -1824.5645690207086	 43.1223	
-5623.127547493305	 -1824.3884237320945	 43.0723	
-5623.157160994497	 -1824.1916934905053	 43.0623	
-5623.189989810727	 -1823.990415118328	 43.0523	
-5623.219484080042	 -1823.7986225107036	 43.0323	
-5623.252598213308	 -1823.5856332420922	 43.0323	
-5623.285687594246	 -1823.378853059615	 43.0323	
-5623.313232215637	 -1823.1976210173461	 43.002300000000005	
-5623.348245726542	 -1822.9740690039514	 43.012299999999996	
-5623.379443026321	 -1822.7722754163096	 43.012299999999996	
-5623.410872471305	 -1822.5643452898748	 43.002300000000005	
-5623.4420529400995	 -1822.362551008151	 43.002300000000005	
-5623.476687225332	 -1822.1500717748024	 42.9923	
-5623.504696025909	 -1821.963410519145	 42.982299999999995	
-5623.535750824775	 -1821.7665534040084	 42.972300000000004	
-5623.574374866378	 -1821.5162279231029	 42.9923	
-5623.601769181425	 -1821.3306172157017	 42.9923	
-5623.633024793005	 -1821.1338322205822	 42.972300000000004	
-5623.665911425427	 -1820.9319855570086	 42.972300000000004	
-5623.695342319146	 -1820.734614142941	 42.9323	
-5623.724753674187	 -1820.5434517784252	 42.9223	
-5623.76121372198	 -1820.3042480025815	 42.9623	
-5623.790454003797	 -1820.1235968737467	 42.9323	
-5623.821661564789	 -1819.9268096810583	 42.9323	
-5623.854608267054	 -1819.7138131932113	 42.9223	
-5623.878451775886	 -1819.554408431205	 42.8723	
-5623.911662650265	 -1819.3359107372557	 42.902300000000004	
-5623.95152021129	 -1819.0860190415924	 42.9223	
-5623.971682148666	 -1818.9533845587484	 42.8523	
-5624.0156859239905	 -1818.6712934571503	 42.9223	
-5624.05051570121	 -1818.432209433491	 42.9623	
-5624.079687659712	 -1818.2515551314507	 42.9423	
-5624.112691175343	 -1818.043566848534	 42.9323	
-5624.14013569301	 -1817.8573886861452	 42.9223	
-5624.169286696874	 -1817.6767333960966	 42.902300000000004	
-5624.192915794075	 -1817.5278377649486	 42.8423	
-5624.22001118884	 -1817.352732982492	 42.7923	
-5624.253124235364	 -1817.1342312752126	 42.8023	
-5624.2932945814755	 -1816.8683223470457	 42.8723	
-5624.320548169657	 -1816.692654169376	 42.8423	
-5608.849105834085	 -1915.9344308106422	 50.470800000000004	
-5608.891579705402	 -1915.6727293621575	 50.4608	
-5608.937119700809	 -1915.4070686824004	 50.4208	
-5608.983233471982	 -1915.1353450805	 50.4008	
-5609.041545320798	 -1914.7895059257173	 50.3108	
-5609.104436335813	 -1914.4164290993117	 50.1908	
-5609.150477772516	 -1914.1396865719119	 50.1608	
-5609.198812431861	 -1913.8518328217024	 50.1108	
-5609.244253353502	 -1913.5861663356127	 50.0908	
-5609.28416734329	 -1913.3467973371578	 50.080799999999996	
-5609.328050330715	 -1913.0856167033558	 50.0608	
-5609.413295851953	 -1912.5799402812306	 49.820800000000006	
-5609.455072677972	 -1912.3349590744783	 49.800799999999995	
-5609.501186919856	 -1912.0576490120047	 49.7808	
-5609.536043826918	 -1911.851014105415	 49.800799999999995	
-5609.567460903767	 -1911.6638708438525	 49.8608	
-5609.607672526832	 -1911.4189953988962	 49.8608	
-5609.656561358508	 -1911.1370108721535	 49.820800000000006	
-5609.70093881055	 -1910.870397759477	 49.800799999999995	
-5609.742387235069	 -1910.6203205661654	 49.7808	
-5609.786323910184	 -1910.3541914916093	 49.7508	
-5609.825466879306	 -1910.120239490466	 49.7708	
-5609.865592334313	 -1909.879739083152	 49.7708	
-5609.906652629329	 -1909.6408122818666	 49.7808	
-5609.956997706076	 -1909.3368168766394	 49.7108	
-5610.0002533135175	 -1909.0761098205917	 49.6908	
-5610.045823372623	 -1908.8049271274772	 49.6608	
-5610.095004559234	 -1908.5230844059088	 49.6308	
-5610.141289934193	 -1908.2402611547518	 49.580799999999996	
-5610.1869800185	 -1907.963499276421	 49.540800000000004	
-5610.244973541378	 -1907.6170704628298	 49.4208	
-5610.288027197294	 -1907.367586748116	 49.4108	
-5610.3374311188645	 -1907.069570485444	 49.3708	
-5610.385543865291	 -1906.7767532070293	 49.300799999999995	
-5610.434773024277	 -1906.4893270001035	 49.2508	
-5610.478483692832	 -1906.2231856411943	 49.220800000000004	
-5610.517840553628	 -1905.9887368585473	 49.2308	
-5610.563207884811	 -1905.71690819417	 49.2008	
-5610.608591172224	 -1905.4457150323317	 49.1608	
-5610.656221569027	 -1905.158393723721	 49.1108	
-5610.699665602352	 -1904.8971886295865	 49.070800000000006	
-5610.747616307313	 -1904.6037280111025	 49.0208	
-5610.796498707728	 -1904.3118401503157	 48.9508	
-5610.840309467919	 -1904.0501467563333	 48.9308	
-5610.883342500018	 -1903.7950759854368	 48.9208	
-5610.924617637559	 -1903.5444179597573	 48.9108	
-5610.971753550945	 -1903.2625918112458	 48.8608	
-5611.00661832719	 -1903.0548138732827	 48.8908	
-5611.046014386949	 -1902.815416510678	 48.8908	
-5611.095392123621	 -1902.5224757072813	 48.8408	
-5611.138473056165	 -1902.2611876955543	 48.800799999999995	
-5611.182174198811	 -1901.9951092118172	 48.7708	
-5611.221105976869	 -1901.7605740023605	 48.7808	
-5611.272099849894	 -1901.4575642381435	 48.7108	
-5611.321396155959	 -1901.164618882412	 48.6408	
-5611.353922963596	 -1900.9685848909148	 48.6908	
-5611.401414710745	 -1900.6750365766143	 48.6308	
-5611.4486067718335	 -1900.3932764854374	 48.570800000000006	
-5611.496129141322	 -1900.1053779396007	 48.5208	
-5611.541202167329	 -1899.8385466073419	 48.470800000000004	
-5611.586068614989	 -1899.5678966653923	 48.4308	
-5611.629590531013	 -1899.3011740531247	 48.4008	
-5611.6745849370345	 -1899.0293250617472	 48.3608	
-5611.721270146146	 -1898.7480458003013	 48.300799999999995	
-5611.770403928565	 -1898.4550914603396	 48.2308	
-5611.810873837626	 -1898.2154963992552	 48.2308	
-5611.850254049532	 -1897.976161455744	 48.2308	
-5611.88936815311	 -1897.7361145192315	 48.2308	
-5611.929766318739	 -1897.4915023491465	 48.220800000000004	
-5611.970975829794	 -1897.2459172916224	 48.2108	
-5612.009711591139	 -1897.0120060096704	 48.2108	
-5612.054388748446	 -1896.7407113444253	 48.1708	
-5612.101321329531	 -1896.4583025218574	 48.1208	
-5612.144856977859	 -1896.1866309421598	 48.050799999999995	
-5612.191384063587	 -1895.9097216833748	 48.0008	
-5612.235848960991	 -1895.6440000790587	 47.970800000000004	
-5612.280639534028	 -1895.372140143111	 47.9208	
-5612.323964237202	 -1895.106041786766	 47.8708	
-5612.370652351302	 -1894.8292041682255	 47.820800000000006	
-5612.411837758644	 -1894.5730204382005	 47.800799999999995	
-5612.456080736697	 -1894.3128711535574	 47.7608	
-5612.4985319474035	 -1894.0521210339111	 47.720800000000004	
-5612.541603084748	 -1893.7909589439248	 47.6808	
-5612.489052203426	 -1893.6531993580695	 47.7228	
-5612.529506401642	 -1893.4136682334936	 47.7228	
-5612.564130301263	 -1893.2009290933422	 47.7528	
-5612.600637882278	 -1892.9825768818578	 47.782799999999995	
-5612.635062742547	 -1892.7747767425133	 47.8328	
-5612.673623839067	 -1892.5458708324018	 47.8428	
-5612.707840915664	 -1892.3386309475457	 47.882799999999996	
-5612.744087671787	 -1892.1202016443858	 47.9228	
-5612.778509066778	 -1891.9130357492834	 47.9728	
-5612.814915834391	 -1891.6896654500295	 47.9928	
-5612.859337461067	 -1891.4233721923872	 47.9628	
-5612.897835410504	 -1891.1944627671655	 47.9728	
-5612.936278470587	 -1890.9605378482006	 47.9828	
-5612.974343289748	 -1890.7321135871773	 48.0028	
-5613.012586504444	 -1890.50312743782	 48.022800000000004	
-5613.04741651603	 -1890.2842441826995	 48.0428	
-5613.083793942009	 -1890.0658848502464	 48.0728	
-5613.125807095666	 -1889.821928364982	 48.0728	
-5613.163961956682	 -1889.5879250358464	 48.0828	
-5613.204549220278	 -1889.3422453601484	 48.0728	
-5613.242903585804	 -1889.1083157304313	 48.0828	
-5613.281070837064	 -1888.8793254386921	 48.0928	
-5613.321325358803	 -1888.6404175268337	 48.1028	
-5613.359976643399	 -1888.4003486450606	 48.1028	
-5613.400126593821	 -1888.1557884653196	 48.0928	
-5613.439948414934	 -1887.9217436627391	 48.1028	
-5613.480626551515	 -1887.6711195923028	 48.0928	
-5613.520599585465	 -1887.4321335773082	 48.0828	
-5613.5690519636255	 -1887.1391446838504	 47.9828	
-5613.60858774434	 -1886.9006437629496	 47.9828	
-5613.63926768345	 -1886.7135250981207	 48.1028	
-5613.669061887659	 -1886.53860612546	 48.2128	
-5613.707748705748	 -1886.2929558785581	 48.2028	
-5613.767405372541	 -1885.936903660929	 47.9828	
-5613.809317772843	 -1885.6867231532124	 47.9628	
-5613.851612227237	 -1885.4316768578992	 47.9428	
-5613.889967925179	 -1885.1971759678572	 47.9428	
-5613.929734912579	 -1884.9525325254676	 47.9328	
-5613.972179569513	 -1884.6969227975114	 47.9028	
-5614.013976932904	 -1884.4417241972442	 47.8728	
-5614.055813035935	 -1884.1915395216502	 47.8428	
-5614.099861178415	 -1883.925860344316	 47.7928	
-5614.13992302212	 -1883.6757123422012	 47.7628	
-5614.181942842742	 -1883.4256002951702	 47.7428	
-5614.221897174499	 -1883.186041581976	 47.7528	
-5614.260091659695	 -1882.9465204904084	 47.7328	
-5614.3014941394895	 -1882.7018329274747	 47.7228	
-5614.337667624643	 -1882.477879356763	 47.7528	
-5614.377744181164	 -1882.23337832845	 47.7528	
-5614.417996713628	 -1881.9883152213188	 47.7328	
-5614.459707641036	 -1881.7381237499708	 47.7128	
-5614.503211658021	 -1881.472924210744	 47.6428	
-5614.54502892246	 -1881.217155357277	 47.6128	
-5614.585098278248	 -1880.9776655143526	 47.6028	
-5614.62288538617	 -1880.7486547524209	 47.632799999999996	
-5614.658781271207	 -1880.5252580790818	 47.6728	
-5614.706146411408	 -1880.2438859117628	 47.562799999999996	
-5614.74844151568	 -1879.9820509567974	 47.5028	
-5614.788170386455	 -1879.7374687411	 47.4928	
-5614.828110024146	 -1879.4929605587768	 47.4728	
-5614.8656397719515	 -1879.2645076346676	 47.4928	
-5614.915071234098	 -1878.9663648172154	 47.3428	
-5614.955477569481	 -1878.7151557490583	 47.2928	
-5614.994344645088	 -1878.487784814384	 47.3228	
-5615.030196048716	 -1878.2693972997347	 47.3728	
-5615.0643474692515	 -1878.0560628331677	 47.4528	
-5615.099640355567	 -1877.8437370926983	 47.532799999999995	
-5615.138970828756	 -1877.6096649785566	 47.562799999999996	
-5615.186647581207	 -1877.3172065299946	 47.3928	
-5615.232677885582	 -1877.0348152160643	 47.2528	
-5615.274075545936	 -1876.7795958481586	 47.2028	
-5615.318036115629	 -1876.5077579922329	 47.0928	
-5615.359117954892	 -1876.2630527821104	 47.0728	
-5615.397033996813	 -1876.028529164789	 47.0728	
-5615.4380658134105	 -1875.779444480765	 47.032799999999995	
-5615.477834205563	 -1875.5393042148144	 47.022800000000004	
-5615.515528030156	 -1875.3053403817314	 47.0428	
-5615.552925140948	 -1875.081891482768	 47.0728	
-5615.590597093524	 -1874.847926539896	 47.0728	
-5615.630069274495	 -1874.6033312045154	 47.0428	
-5615.67127958578	 -1874.3586953658285	 47.032799999999995	
-5615.710256682795	 -1874.1251757886857	 47.032799999999995	
-5615.746037085482	 -1873.901202365983	 47.0828	
-5615.783529447901	 -1873.672810335022	 47.1128	
-5615.82493914103	 -1873.4170204430052	 47.052800000000005	
-5615.868122162374	 -1873.1618258358476	 46.9728	
-5615.905478971001	 -1872.927781759444	 46.9828	
-5615.943113282777	 -1872.6988257656321	 47.0128	
-5615.982543736546	 -1872.4592391043568	 47.022800000000004	
-5616.021617819911	 -1872.2251530667381	 47.032799999999995	
-5616.057691803423	 -1871.9963101441997	 47.052800000000005	
-5616.094183781055	 -1871.7788415157202	 47.132799999999996	
-5616.133913204165	 -1871.5337512444355	 47.132799999999996	
-5616.259248165201	 -1870.7730952981678	 46.8928	
-5616.288713634847	 -1870.5869936899023	 47.1428	
-5616.325896315625	 -1870.363533224223	 47.2528	
-5616.368971430096	 -1870.0977402051633	 47.0728	
-5616.406131888529	 -1869.8742785443485	 47.1528	
-5616.44141256082	 -1869.6564327681087	 47.272800000000004	
-5616.4785529777655	 -1869.4329700290898	 47.3528	
-5616.5174136290425	 -1869.193862259328	 47.3728	
-5616.554991003657	 -1868.95932153174	 47.382799999999996	
-5616.5938985040875	 -1868.7252265622212	 47.4328	
-5616.632831614294	 -1868.4917670218433	 47.4928	
-5616.6703753888605	 -1868.2572246001578	 47.532799999999995	
-5616.709249502761	 -1868.0231278320996	 47.5728	
-5616.747925720688	 -1867.7895921293302	 47.6128	
-5616.785133688713	 -1867.5611852866705	 47.6828	
-5616.82450023416	 -1867.3210238169327	 47.7428	
-5616.863257980922	 -1867.0819107637783	 47.7628	
-5616.900547563015	 -1866.847926672009	 47.7628	
-5616.939578293825	 -1866.6139006691974	 47.8628	
-5616.978187609963	 -1866.3803614222147	 47.9428	
-5617.016972470534	 -1866.146259875694	 48.052800000000005	
-5617.0564203619415	 -1865.9011552757772	 48.0728	
-5617.096788015386	 -1865.6569833150495	 48.062799999999996	
-5617.135351939712	 -1865.4234416462925	 48.1028	
-5617.1747637204035	 -1865.1783352213126	 48.1628	
-5617.215282011701	 -1864.9335996371344	 48.0728	
-5617.254482843233	 -1864.689053710523	 48.062799999999996	
-5617.295200584232	 -1864.4443911182623	 48.0928	
-5617.333818206635	 -1864.205270920906	 48.1128	
-5617.374735740106	 -1863.9606812980742	 48.1228	
-5617.415193539794	 -1863.7159424794258	 48.1528	
-5617.454109863867	 -1863.471319244231	 48.1228	
-5617.494767162487	 -1863.2266533996426	 48.0828	
-5617.533549353605	 -1862.9876044220541	 48.1128	
-5617.574182651528	 -1862.7429372836546	 48.132799999999996	
-5617.613050420911	 -1862.498311656061	 48.1528	
-5617.653845637602	 -1862.2530814682962	 48.1628	
-5617.692394269133	 -1862.0145918398146	 48.1528	
-5617.600639818231	 -1861.892528725052	 48.1418	
-5617.639539220874	 -1861.652917611514	 48.171800000000005	
-5617.679916065709	 -1861.4088117630072	 48.1118	
-5617.720466953212	 -1861.1641434884561	 48.1418	
-5617.759251738101	 -1860.9195169551376	 48.1418	
-5617.798103709714	 -1860.6799034245887	 48.1218	
-5617.838432345007	 -1860.4357950350764	 48.1018	
-5617.878934925773	 -1860.191124205929	 48.0818	
-5617.919201350861	 -1859.9463785463918	 48.0618	
-5617.958254839028	 -1859.6962478900928	 48.2118	
-5617.996532065279	 -1859.4626942917387	 48.1318	
-5618.036986327089	 -1859.2180209249054	 48.0818	
-5618.075569490254	 -1858.978964977936	 48.0218	
-5618.115671453943	 -1858.7397914891035	 47.9618	
-5618.154417238517	 -1858.500172533722	 47.901799999999994	
-5618.192861899877	 -1858.266690090673	 47.8318	
-5618.231257188323	 -1858.032571111792	 47.751799999999996	
-5618.273518549464	 -1857.7716869913284	 47.8918	
-5618.35053264106	 -1857.293567391396	 47.8518	
-5618.387293899221	 -1857.069515983242	 47.651799999999994	
-5618.425344770931	 -1856.841531141276	 47.5918	
-5618.463588223016	 -1856.6023952610328	 47.5718	
-5618.502229862448	 -1856.362771052522	 47.5318	
-5618.540573271066	 -1856.1292833300256	 47.4818	
-5618.578766338192	 -1855.900734299101	 47.3918	
-5618.616964016525	 -1855.661596144805	 47.3918	
-5618.657654048225	 -1855.4058365169117	 47.5218	
-5618.695952126224	 -1855.172346445992	 47.4518	
-5618.733976079962	 -1854.9381458304717	 47.401799999999994	
-5618.7706690927935	 -1854.7147247862003	 47.3118	
-5618.807127687652	 -1854.4912291735584	 47.2118	
-5618.845158158667	 -1854.2576628112668	 47.171800000000005	
-5618.883362962139	 -1854.0235339925969	 47.1418	
-5618.9138567349355	 -1853.8323471085444	 46.8818	
-5618.997861792276	 -1853.3167667711998	 47.1118	
-5619.032306749218	 -1853.1044620569453	 46.9918	
-5619.06869231655	 -1852.880962704802	 46.9118	
-5619.107434518107	 -1852.6351924164348	 46.9518	
-5619.143428287336	 -1852.4128158333833	 46.8818	
-5619.179686447773	 -1852.1948899942702	 46.7818	
-5619.215390418213	 -1851.982390762347	 46.6618	
-5619.248072036762	 -1851.774504549473	 46.5418	
-5619.280464438098	 -1851.57275493208	 46.3918	
-5619.309191764466	 -1851.3972089595563	 46.1418	
-5619.341154695942	 -1851.2065347307712	 45.9618	
-5619.373708946306	 -1851.0042219986367	 45.8418	
-5619.406254876371	 -1850.8019088578353	 45.7218	
-5619.43972994577	 -1850.6005269218772	 45.5918	
-5619.47216554222	 -1850.403787968093	 45.4718	
-5619.508746718281	 -1850.1747812507115	 45.4618	
-5619.54075582328	 -1849.9785294488127	 45.3418	
-5619.571408844492	 -1849.792421820104	 45.1918	
-5619.6038128138425	 -1849.5850931347231	 45.1118	
-5619.641703252035	 -1849.3565279850382	 45.1218	
-5619.676254711861	 -1849.138077676986	 45.0918	
-5619.707906034247	 -1848.9473248665643	 44.9718	
-5619.738611912955	 -1848.7556402444027	 44.8518	
-5619.772729176411	 -1848.5482647082524	 44.7818	
-5619.812548419261	 -1848.2985501669841	 44.8618	
-5619.845168018062	 -1848.0956695140192	 44.7818	
-5619.8770944085945	 -1847.8994135044559	 44.7018	
-5619.911215606473	 -1847.6926719587857	 44.6218	
-5619.943216117915	 -1847.4908401880175	 44.5618	
-5619.977370144717	 -1847.2778869821168	 44.5318	
-5620.013621122785	 -1847.049435175976	 44.5518	
-5620.047756037869	 -1846.8364810514302	 44.501799999999996	
-5620.083768401238	 -1846.618542237641	 44.4918	
-5620.119859937914	 -1846.3950280108584	 44.4718	
-5620.151718677234	 -1846.1987685842882	 44.401799999999994	
-5620.182004543486	 -1846.0125797859016	 44.3118	
-5620.212596171521	 -1845.8208895664338	 44.2218	
-5620.242995765071	 -1845.6297610150257	 44.1318	
-5620.276532258144	 -1845.4222311286524	 44.0918	
-5620.3089764014685	 -1845.2149676518154	 44.0618	
-5620.348325247623	 -1844.98133366733	 44.0818	
-5620.388459438649	 -1844.7255472697518	 44.171800000000005	
-5620.431986637996	 -1844.4540686766427	 44.2918	
-5620.467484739806	 -1844.236612691828	 44.2718	
-5620.497597976764	 -1844.0454074165661	 44.2218	
-5620.5282973748335	 -1843.8531514594374	 44.1318	
-5620.558535199307	 -1843.6675940528355	 44.0418	
-5620.592213975578	 -1843.4601338300188	 44.0118	
-5620.626319083635	 -1843.2422331506368	 44.0118	
-5620.663816450005	 -1843.0086400758205	 44.0218	
-5620.701587081077	 -1842.7794970872087	 44.0418	
-5620.733610873534	 -1842.5777294547518	 44.001799999999996	
-5620.763575866188	 -1842.3920959061322	 43.931799999999996	
-5620.792060111639	 -1842.2109586434538	 43.8418	
-5620.8236691128595	 -1842.0202656819708	 43.7818	
-5620.867355176419	 -1841.7432787971777	 43.901799999999994	
-5620.90281656631	 -1841.5202420820433	 43.9118	
-5620.938861077225	 -1841.2961543990157	 43.921800000000005	
-5620.969084951677	 -1841.105017465029	 43.8518	
-5621.0006513364015	 -1840.9143223035494	 43.7918	
-5621.032782763846	 -1840.7119889294956	 43.751799999999996	
-5621.072469726134	 -1840.4561185540645	 43.8318	
-5621.10828184124	 -1840.2325906418623	 43.8318	
-5621.141857239966	 -1840.0257590555111	 43.8118	
-5621.173687624341	 -1839.8295607472912	 43.7618	
-5621.207285347972	 -1839.6165178737112	 43.7418	
-5621.2373639641755	 -1839.4309525224621	 43.6918	
-5621.276904470436	 -1839.180653769642	 43.7318	
-5621.31092426874	 -1838.9677568644122	 43.7218	
-5621.340632965025	 -1838.787055538301	 43.651799999999994	
-5621.366762703629	 -1838.6226090788803	 43.5618	
-5621.398799977069	 -1838.4202712489282	 43.5218	
-5621.441717553708	 -1838.1549126506893	 43.6118	
-5621.4757712583	 -1837.9364390031376	 43.6118	
-5621.509209137004	 -1837.7289668957449	 43.5918	
-5621.539294507024	 -1837.5378234610923	 43.5418	
-5621.572834468913	 -1837.3254117184122	 43.5418	
-5621.604699812858	 -1837.1280102177789	 43.5118	
-5621.640177390449	 -1836.9050371984795	 43.5118	
-5621.672067469974	 -1836.708270615097	 43.4718	
-5621.704026104902	 -1836.5059290926945	 43.4518	
-5621.737521570899	 -1836.2935152651078	 43.4518	
-5621.770932021551	 -1836.0866755443765	 43.421800000000005	
-5621.804893818686	 -1835.8681977297456	 43.431799999999996	
-5621.8384700143115	 -1835.6607949642762	 43.4118	
-5621.871929028108	 -1835.4483794439868	 43.401799999999994	
-5621.905671132561	 -1835.2404136196747	 43.3918	
-5621.939037500147	 -1835.0335717376372	 43.3718	
-5621.97269478545	 -1834.8212284737278	 43.3618	
-5621.857408478455	 -1834.6909154221528	 43.449799999999996	
-5621.889353761424	 -1834.4829986700995	 43.4298	
-5621.913612175084	 -1834.3291821022895	 43.3498	
-5621.945170379993	 -1834.1323400050765	 43.3198	
-5621.971738109211	 -1833.9568869760003	 43.2498	
-5622.001558321772	 -1833.7706783898302	 43.2098	
-5622.040622563953	 -1833.5209323023175	 43.2698	
-5622.074537922298	 -1833.2968783105277	 43.2798	
-5622.104405087497	 -1833.1050942053937	 43.2398	
-5622.136436878725	 -1832.9028224724798	 43.2198	
-5622.171564631058	 -1832.674196111199	 43.2398	
-5622.208965043886	 -1832.4400940636638	 43.2698	
-5622.238911830107	 -1832.2433698448885	 43.2398	
-5622.273867751589	 -1832.0258908506255	 43.2398	
-5622.307940168183	 -1831.8019075153486	 43.2598	
-5622.3490313011225	 -1831.5410338544157	 43.3198	
-5622.380617505463	 -1831.3330380055359	 43.2998	
-5622.414588811124	 -1831.114627682507	 43.3098	
-5622.442470668065	 -1830.934036609956	 43.2698	
-5622.477732152189	 -1830.705479829355	 43.2898	
-5622.509145573548	 -1830.5086310911515	 43.2498	
-5622.539197822944	 -1830.3113414250502	 43.2398	
-5622.570412493433	 -1830.115054222536	 43.2198	
-5622.602640163269	 -1829.9010662199905	 43.2198	
-5622.63383847644	 -1829.7047782854622	 43.199799999999996	
-5622.6713907325075	 -1829.465168977487	 43.2298	
-5622.70487047065	 -1829.2472439366916	 43.2298	
-5622.731220369537	 -1829.0711481329938	 43.1798	
-5622.769686989007	 -1828.83246671387	 43.2198	
-5622.797843139133	 -1828.6407970619707	 43.1798	
-5622.831177385029	 -1828.42780904834	 43.169799999999995	
-5622.864253830564	 -1828.2209570911377	 43.1798	
-5622.896398703753	 -1828.0069657672404	 43.1798	
-5622.924348986125	 -1827.8258075814301	 43.1298	
-5622.954045422608	 -1827.6346499543727	 43.1098	
-5622.985508680281	 -1827.4272830259197	 43.0998	
-5623.0187258540545	 -1827.2198668757544	 43.089800000000004	
-5623.052288552437	 -1827.0013753818782	 43.0998	
-5623.081791190103	 -1826.8045689199785	 43.0798	
-5623.111523714071	 -1826.6177857707419	 43.0398	
-5623.142816951016	 -1826.421565305001	 43.0198	
-5623.174517930693	 -1826.2086954909287	 43.0298	
-5623.209861588757	 -1825.9845789276017	 43.0298	
-5623.237554696971	 -1825.8039799197454	 42.9998	
-5623.268714722872	 -1825.5965365398233	 42.9998	
-5623.304073777623	 -1825.3730543905044	 43.0198	
-5623.337145936733	 -1825.1550485237906	 43.0198	
-5623.372608237826	 -1824.9204173915589	 43.0498	
-5623.405824715288	 -1824.7080580605589	 43.0398	
-5623.433548751987	 -1824.5318331983062	 43.0098	
-5623.468451239338	 -1824.3088379794476	 43.0098	
-5623.496369191079	 -1824.122735680159	 42.9898	
-5623.525591838761	 -1823.936437074381	 42.9598	
-5623.557367036845	 -1823.7230007362932	 42.9698	
-5623.588319148053	 -1823.526701881787	 42.949799999999996	
-5623.620016855043	 -1823.3188388407634	 42.949799999999996	
-5623.653120624872	 -1823.1058409207508	 42.949799999999996	
-5623.684903231538	 -1822.893038796458	 42.939800000000005	
-5623.723355734114	 -1822.648843040208	 42.9898	
-5623.754972547062	 -1822.4403428910423	 42.9798	
-5623.782535227914	 -1822.2597385490758	 42.949799999999996	
-5623.81377107098	 -1822.0523625142846	 42.949799999999996	
-5623.848641799461	 -1821.8337384538793	 42.9598	
-5623.8781626769505	 -1821.6369970922337	 42.949799999999996	
-5623.911294696561	 -1821.4190577980326	 42.949799999999996	
-5623.9408801377185	 -1821.2266917184822	 42.9298	
-5623.97211619262	 -1821.0199495531826	 42.919799999999995	
-5624.0034251725065	 -1820.8175829448085	 42.9298	
-5624.032748764609	 -1820.6313521683612	 42.8898	
-5624.0624593842695	 -1820.4284726699607	 42.8898	
-5624.091712498932	 -1820.2478151203925	 42.8498	
-5624.119194520271	 -1820.0672075136365	 42.8198	
-5624.1467251929125	 -1819.881025809953	 42.7998	
-5624.1762945402625	 -1819.689292836742	 42.7898	
-5624.207785517097	 -1819.480787709281	 42.7898	
-5624.2516508381195	 -1819.199250263563	 42.8498	
-5624.286591962568	 -1818.9707441290116	 42.8698	
-5624.321532052591	 -1818.736028219593	 42.909800000000004	
-5624.352565182326	 -1818.5342201588812	 42.8898	
-5624.385461706563	 -1818.3212136032319	 42.8998	
-5624.41665963559	 -1818.1188423931126	 42.8898	
-5624.447441268984	 -1817.9169601726583	 42.8798	
-5624.475576868826	 -1817.7247854349046	 42.8698	
-5624.508204240592	 -1817.5179136340296	 42.8698	
-5624.539473254343	 -1817.3043936202992	 42.8798	
-5624.574099953522	 -1817.0758108955906	 42.8998	
-5624.603508331775	 -1816.8896471735566	 42.8698	
-5624.636611150832	 -1816.6711370738178	 42.8798	
-5624.6677921664905	 -1816.463189415144	 42.8698	
-5624.702328973537	 -1816.2401788247732	 42.8998	
-5624.731530048291	 -1816.0483669995183	 42.8698	
-5609.206729938106	 -1915.1822191762562	 50.1537	
-5609.256255974348	 -1914.8903598809222	 50.1137	
-5609.29583295063	 -1914.6608692506456	 50.1237	
-5609.348994834338	 -1914.3589867659666	 50.0637	
-5609.39295851498	 -1914.1028184642644	 50.0637	
-5609.432115869972	 -1913.8744474336866	 50.0737	
-5609.462886683023	 -1913.6995791806423	 50.1337	
-5609.502785367299	 -1913.4595680864259	 50.1237	
-5609.541517995448	 -1913.2366965142953	 50.1437	
-5609.597658384339	 -1912.9120587021077	 50.0837	
-5609.635230056247	 -1912.688172019378	 50.0737	
-5609.680242510439	 -1912.4330119700342	 50.0737	
-5609.721829873795	 -1912.1885849424511	 50.0637	
-5609.764904493308	 -1911.9390329944176	 50.0837	
-5609.81653093503	 -1911.640430404292	 50.003699999999995	
-5609.8580787184865	 -1911.3960010084013	 49.993700000000004	
-5609.921860977989	 -1911.0239130584584	 49.8737	
-5609.967158128587	 -1910.7582305776352	 49.8637	
-5610.01302328759	 -1910.4864849604444	 49.8237	
-5610.060231788728	 -1910.2158270822072	 49.7937	
-5610.099568278978	 -1909.9813074707445	 49.7937	
-5610.1406426600915	 -1909.742374474057	 49.8037	
-5610.192334492313	 -1909.4388234766573	 49.7337	
-5610.241540238237	 -1909.1519595372783	 49.7037	
-5610.286590591788	 -1908.8968632635947	 49.673700000000004	
-5610.335932362406	 -1908.6044207398832	 49.6137	
-5610.379404195157	 -1908.3487953730782	 49.603699999999996	
-5610.430985813581	 -1908.040223655533	 49.5537	
-5610.471768200646	 -1907.806225222627	 49.5537	
-5610.519383131949	 -1907.5244803082126	 49.5137	
-5610.578553407118	 -1907.1847049425626	 49.3937	
-5610.631968401891	 -1906.8705183556335	 49.3037	
-5610.69028499013	 -1906.5185742306885	 49.2037	
-5610.728923832725	 -1906.2957586676273	 49.2137	
-5610.76564166274	 -1906.0829323991295	 49.2337	
-5610.798564866365	 -1905.8863426638698	 49.283699999999996	
-5610.8439953317065	 -1905.620157882949	 49.2637	
-5610.890519369012	 -1905.3543485064095	 49.253699999999995	
-5610.947797748922	 -1905.0145982802528	 49.1237	
-5610.996935045627	 -1904.7271577574095	 49.0737	
-5611.0339690508545	 -1904.508826041327	 49.0937	
-5611.072900648021	 -1904.2805035736437	 49.103699999999996	
-5611.11537956148	 -1904.0358675895307	 49.0937	
-5611.152544430887	 -1903.811957503269	 49.1137	
-5611.20351702111	 -1903.5145224990936	 49.0637	
-5611.24637186926	 -1903.2650191771297	 49.0437	
-5611.304046343208	 -1902.9185617446626	 48.9137	
-5611.348743461324	 -1902.658429896125	 48.8937	
-5611.397552410784	 -1902.3715423221165	 48.8337	
-5611.438795887833	 -1902.1258883687574	 48.8337	
-5611.479487424101	 -1901.8869325235314	 48.8337	
-5611.5180751102735	 -1901.6585276991798	 48.853699999999996	
-5611.560994052307	 -1901.4078212996574	 48.8337	
-5611.611250712791	 -1901.1164401434787	 48.773700000000005	
-5611.6466031044865	 -1900.9025883378906	 48.8037	
-5611.699646902852	 -1900.5890145057685	 48.7137	
-5611.7483347474645	 -1900.3021198420147	 48.6537	
-5611.7908043948455	 -1900.0525316907174	 48.6337	
-5611.835349651068	 -1899.7923907865686	 48.6137	
-5611.888890486898	 -1899.472750270646	 48.5137	
-5611.933373018428	 -1899.2119712554256	 48.4737	
-5611.98027127483	 -1898.9301226652924	 48.4337	
-5612.026655699298	 -1898.6643662352	 48.4037	
-5612.0695737097085	 -1898.403695380377	 48.3637	
-5612.106103926791	 -1898.1852722303408	 48.3737	
-5612.151116222199	 -1897.9190629272953	 48.3637	
-5612.191380763084	 -1897.6800200460768	 48.3637	
-5612.235836402904	 -1897.424886949298	 48.3437	
-5612.280210135947	 -1897.164101540095	 48.3137	
-5612.319364439329	 -1896.9296964557736	 48.3037	
-5612.3695081359465	 -1896.632723045261	 48.2237	
-5612.416257812204	 -1896.3508661114342	 48.1637	
-5612.467157312031	 -1896.0522819954351	 48.103699999999996	
-5612.511864256807	 -1895.7866272471733	 48.033699999999996	
-5612.554596168152	 -1895.5253116990846	 48.003699999999995	
-5612.598561061598	 -1895.2712943737356	 47.993700000000004	
-5612.6431930396775	 -1895.005000952962	 47.9637	
-5612.683687874225	 -1894.7604485666693	 47.9337	
-5612.732074205057	 -1894.4785493085847	 47.8737	
-5612.77458655627	 -1894.222806325082	 47.8437	
-5612.8212375216435	 -1893.9459567782214	 47.7937	
-5612.865269817237	 -1893.686358217708	 47.7637	
-5612.905928837231	 -1893.4462559392146	 47.753699999999995	
-5612.731449570076	 -1893.3742694376454	 47.6827	
-5612.767453245585	 -1893.1669906156774	 47.7527	
-5612.799851598028	 -1892.9703755667624	 47.7927	
-5612.83561599912	 -1892.7630207527177	 47.8427	
-5612.873666780879	 -1892.545187453405	 47.8827	
-5612.909404106856	 -1892.3334527882585	 47.9127	
-5612.94370369022	 -1892.136237889814	 47.9627	
-5612.981873261117	 -1891.9128265883442	 47.9927	
-5613.0213568804875	 -1891.6854855646316	 48.0327	
-5613.057581356772	 -1891.4670498462249	 48.0627	
-5613.099492703051	 -1891.2280318386495	 48.0727	
-5613.141315390263	 -1890.9833619226508	 48.0627	
-5613.1811235657415	 -1890.7505169217372	 48.0827	
-5613.221410138841	 -1890.5103361590316	 48.0727	
-5613.26271945272	 -1890.2773778988726	 48.0727	
-5613.301027199571	 -1890.0540364064757	 48.1027	
-5613.340712840677	 -1889.815537643749	 48.0927	
-5613.380810263898	 -1889.5809304396153	 48.112700000000004	
-5613.4202322649835	 -1889.3585976590819	 48.1627	
-5613.462138645488	 -1889.1089821573455	 48.1327	
-5613.500359876737	 -1888.8850012625594	 48.1627	
-5613.541735096064	 -1888.6464619043832	 48.1627	
-5613.580111025811	 -1888.4175397610977	 48.1827	
-5613.623304746992	 -1888.1683705763346	 48.1727	
-5613.6655620554375	 -1887.9182650380064	 48.1727	
-5613.707031699836	 -1887.6741466375229	 48.152699999999996	
-5613.750599229824	 -1887.4244886015913	 48.142700000000005	
-5613.792407486918	 -1887.1748673907937	 48.122699999999995	
-5613.830714924192	 -1886.945941288371	 48.142700000000005	
-5613.873883206244	 -1886.7017823262918	 48.1327	
-5613.921751547986	 -1886.4148464472107	 48.0427	
-5613.953566713096	 -1886.2287322862674	 48.142700000000005	
-5613.984824573319	 -1886.0486804423313	 48.2727	
-5614.086658038159	 -1885.4475198744788	 48.0527	
-5614.130200628403	 -1885.187264063511	 48.0127	
-5614.169923520957	 -1884.953841315363	 48.0127	
-5614.212942542174	 -1884.7046614688634	 47.9927	
-5614.264822871728	 -1884.4009890748364	 47.892700000000005	
-5614.305004699079	 -1884.1564866619435	 47.8827	
-5614.350038110739	 -1883.8967501288676	 47.8327	
-5614.395193950792	 -1883.6314366570102	 47.7727	
-5614.433524846726	 -1883.401939643689	 47.7927	
-5614.477012119455	 -1883.1466922637667	 47.7627	
-5614.518279891996	 -1882.9031961307824	 47.7727	
-5614.555977482195	 -1882.674745390833	 47.7827	
-5614.60130951766	 -1882.4138812112071	 47.7327	
-5614.644968504771	 -1882.1587054991767	 47.6927	
-5614.686321387787	 -1881.9096304580978	 47.6927	
-5614.727191538074	 -1881.6760105169853	 47.6927	
-5614.767237713326	 -1881.4315005740023	 47.6727	
-5614.81062303954	 -1881.1762471879508	 47.642700000000005	
-5614.845981934402	 -1880.9745132522492	 47.7427	
-5614.883777988416	 -1880.7454959962688	 47.7627	
-5614.9348505198	 -1880.4434936799514	 47.6327	
-5614.976548865274	 -1880.1983052630264	 47.612700000000004	
-5615.015681263429	 -1879.9703699900356	 47.6327	
-5615.062990812561	 -1879.6883516982584	 47.5327	
-5615.100408180043	 -1879.465468607276	 47.5627	
-5615.141647056192	 -1879.2207642271412	 47.5527	
-5615.183319747471	 -1878.9762083781718	 47.5327	
-5615.226520111586	 -1878.7159330905909	 47.5027	
-5615.26998797679	 -1878.4607460824063	 47.4527	
-5615.312679559843	 -1878.2115465793831	 47.4127	
-5615.352201290628	 -1877.9725285395614	 47.402699999999996	
-5615.39158272517	 -1877.7390858123326	 47.4527	
-5615.4409933506995	 -1877.4459434554526	 47.2927	
-5615.476140663287	 -1877.2391857898062	 47.392700000000005	
-5615.5273738912765	 -1876.9360479359498	 47.1727	
-5615.568777363402	 -1876.6808206192193	 47.112700000000004	
-5615.605769076321	 -1876.4684455047807	 47.2127	
-5615.643040814518	 -1876.2455541122674	 47.2527	
-5615.684469498234	 -1875.9953392096213	 47.2027	
-5615.727386033213	 -1875.7406310358235	 47.1727	
-5615.772513892622	 -1875.4748049780922	 47.0827	
-5615.815465582632	 -1875.2251095440445	 47.0327	
-5615.856717224426	 -1874.9804676058923	 47.0127	
-5615.896206910877	 -1874.7358650008732	 46.972699999999996	
-5615.937059346924	 -1874.4923448988575	 46.9427	
-5615.977579571554	 -1874.258703631085	 46.9527	
-5616.01516202215	 -1874.0353194767463	 47.0027	
-5616.054321289528	 -1873.8012299697214	 47.0427	
-5616.093282082779	 -1873.5677014477335	 47.0727	
-5616.132108651481	 -1873.3397481380475	 47.1027	
-5616.171891206414	 -1873.0940179663526	 47.0627	
-5616.34126011473	 -1872.0852154314825	 46.8127	
-5616.378586680657	 -1871.866765417846	 46.892700000000005	
-5616.4136214564305	 -1871.6544184482036	 47.0127	
-5616.450433932967	 -1871.442666386884	 47.122699999999995	
-5616.491618564736	 -1871.1924379708646	 47.0927	
-5616.53213964298	 -1870.9538476515831	 47.0927	
-5616.571219839049	 -1870.7247640118705	 47.1727	
-5616.608008495214	 -1870.5017836044092	 47.2427	
-5616.646849418534	 -1870.2688823812257	 47.2627	
-5616.690186841965	 -1870.0075326654348	 47.1627	
-5616.729154924717	 -1869.7734324216963	 47.1627	
-5616.767806527434	 -1869.5454689686476	 47.2327	
-5616.804728715252	 -1869.3219239704108	 47.3227	
-5616.84572430912	 -1869.0779014548712	 47.2827	
-5616.886330231506	 -1868.8387435544967	 47.3027	
-5616.924938766731	 -1868.610777600105	 47.372699999999995	
-5616.961972223663	 -1868.3822905979366	 47.4427	
-5617.002204320094	 -1868.1486321089576	 47.5327	
-5617.0398501719255	 -1867.9197309328679	 47.6027	
-5617.08032942123	 -1867.6755558204752	 47.5727	
-5617.119257805616	 -1867.446463375953	 47.652699999999996	
-5617.157730941216	 -1867.2134797837148	 47.7127	
-5617.198246728131	 -1866.974316681507	 47.7627	
-5617.2385642982645	 -1866.7357146240995	 47.8027	
-5617.277938991497	 -1866.4961786713238	 47.8127	
-5617.318420113516	 -1866.2570135681729	 47.8327	
-5617.357547911143	 -1866.0174020641732	 47.8827	
-5617.397632720047	 -1865.7793591231102	 47.9327	
-5617.438079189373	 -1865.540192034299	 47.9927	
-5617.477172119388	 -1865.3005786561473	 48.0427	
-5617.517595431349	 -1865.0614102535574	 48.1027	
-5617.558156915714	 -1864.8173015897528	 48.1627	
-5617.59855687897	 -1864.578131843486	 48.152699999999996	
-5617.639094483726	 -1864.3340218464705	 48.222699999999996	
-5617.677942331222	 -1864.094967096951	 48.3027	
-5617.718642392502	 -1863.8502940386886	 48.2427	
-5617.761007573589	 -1863.6005643261506	 48.222699999999996	
-5617.801683168736	 -1863.3558898915553	 48.222699999999996	
-5617.84361335255	 -1863.1066463006944	 48.122699999999995	
-5617.884264493739	 -1862.8619705030303	 48.122699999999995	
-5617.924717250265	 -1862.617855830169	 48.122699999999995	
-5617.965344169984	 -1862.3731787022464	 48.1327	
-5618.005548929405	 -1862.128988520433	 48.152699999999996	
-5618.04618926372	 -1861.88494605753	 48.1627	
-5618.086556014579	 -1861.640192765296	 48.122699999999995	
-5617.92402937046	 -1861.5900779132178	 48.0427	
-5617.964375263513	 -1861.34532847484	 48.1627	
-5618.005156837141	 -1861.1007267396649	 48.1827	
-5618.045106288838	 -1860.8570995975083	 48.142700000000005	
-5618.08716944228	 -1860.6123055475448	 48.112700000000004	
-5618.127318757777	 -1860.368751242725	 48.0827	
-5618.167828073031	 -1860.1240726602184	 48.0727	
-5618.20843133	 -1859.873818010713	 48.1927	
-5618.248730130945	 -1859.629699941543	 48.1727	
-5618.287529347709	 -1859.3900758527288	 48.1027	
-5618.327660946786	 -1859.1508959408905	 48.0727	
-5618.367738099253	 -1858.9073377865514	 48.0427	
-5618.408174959274	 -1858.66265531015	 48.0227	
-5618.450376501246	 -1858.407340210323	 48.2327	
-5618.490684664612	 -1858.168231749959	 48.0827	
-5618.525637157236	 -1857.9497939000053	 47.8227	
-5618.56351396763	 -1857.7217299362121	 47.6927	
-5618.603706337723	 -1857.4776061498642	 47.6727	
-5618.645743864678	 -1857.2278630739331	 47.722699999999996	
-5618.686302420673	 -1856.9720254507058	 47.872699999999995	
-5618.726131427567	 -1856.7334009497692	 47.8027	
-5618.762915183396	 -1856.5099770682198	 47.6927	
-5618.802721914907	 -1856.27135133229	 47.6327	
-5618.841357750816	 -1856.0317187831215	 47.5927	
-5618.881242352156	 -1855.7875165099545	 47.642700000000005	
-5618.919568401025	 -1855.5540199484922	 47.5927	
-5618.957844732096	 -1855.319886877872	 47.5327	
-5618.996334161094	 -1855.0858272518394	 47.472699999999996	
-5619.034488485533	 -1854.8572682722402	 47.402699999999996	
-5619.070877144548	 -1854.6287525250216	 47.3127	
-5619.107117122918	 -1854.4051755979167	 47.2327	
-5619.147046495993	 -1854.1666183795057	 47.222699999999996	
-5619.185256980693	 -1853.93248186516	 47.2027	
-5619.221602647319	 -1853.7039639977868	 47.142700000000005	
-5619.263673998397	 -1853.4542844541538	 47.2027	
-5619.298231792193	 -1853.2363980526673	 47.1027	
-5619.334223290537	 -1853.0133798298818	 47.0227	
-5619.446893337682	 -1852.3215928297104	 46.9127	
-5619.482971427924	 -1852.1042216369628	 46.8027	
-5619.521083980702	 -1851.8700800795784	 46.7827	
-5619.583854387888	 -1851.487079261343	 46.3827	
-5619.614347704306	 -1851.300894663121	 46.1727	
-5619.646539306924	 -1851.110287901879	 45.972699999999996	
-5619.678688899059	 -1850.908456537986	 45.862700000000004	
-5619.713224349504	 -1850.6955777709018	 45.7627	
-5619.7474318419045	 -1850.4881997464781	 45.6627	
-5619.781221161566	 -1850.2813093309069	 45.5627	
-5619.813970683079	 -1850.0790621070635	 45.472699999999996	
-5619.846302440946	 -1849.8773025595317	 45.3527	
-5619.877013345779	 -1849.6849777281834	 45.222699999999996	
-5619.910582831459	 -1849.489235764642	 45.1027	
-5619.941226086927	 -1849.2925329468715	 44.9927	
-5619.973393421974	 -1849.095711011486	 44.892700000000005	
-5620.005552916117	 -1848.8988886673017	 44.8027	
-5620.041889216554	 -1848.6704332045863	 44.8127	
-5620.081910400011	 -1848.4201489962848	 44.8827	
-5620.112419261235	 -1848.2290192526548	 44.7627	
-5620.144137074889	 -1848.0432713912883	 44.6327	
-5620.172743691804	 -1847.8571252224087	 44.5127	
-5620.2165890662545	 -1847.591295263291	 44.642700000000005	
-5620.25646103971	 -1847.335995374629	 44.7127	
-5620.290527468772	 -1847.1286100375132	 44.6827	
-5620.32126074139	 -1846.9313408196963	 44.6027	
-5620.355310165581	 -1846.7239546199323	 44.5427	
-5620.387375028855	 -1846.5271274863012	 44.472699999999996	
-5620.419376554779	 -1846.3259228558104	 44.392700000000005	
-5620.453674034771	 -1846.1123983256352	 44.372699999999995	
-5620.489567630191	 -1845.8894378284388	 44.362700000000004	
-5620.521912203663	 -1845.6871078473291	 44.3127	
-5620.550565873018	 -1845.5066064106322	 44.1927	
-5620.5823662904495	 -1845.3202908953913	 44.0927	
-5620.616963359421	 -1845.0913110584593	 44.122699999999995	
-5620.656393265076	 -1844.841506357548	 44.1827	
-5620.697705905934	 -1844.5973039659557	 44.2427	
-5620.731871025389	 -1844.3793987472202	 44.2427	
-5620.763842350297	 -1844.182566924183	 44.1727	
-5620.794371017143	 -1843.9908671560315	 44.0927	
-5620.8241723183055	 -1843.8051565348517	 44.0127	
-5620.85499678377	 -1843.607954913684	 43.9527	
-5620.890282456016	 -1843.391052123577	 43.9427	
-5620.934242014557	 -1843.1134980313739	 44.0627	
-5620.968525572129	 -1842.895027689451	 44.0527	
-5621.000253374141	 -1842.698755048233	 43.9927	
-5621.031973374692	 -1842.5024820154138	 43.9527	
-5621.0662297698955	 -1842.2840104127772	 43.9427	
-5621.098426129558	 -1842.081673329764	 43.9127	
-5621.13092258391	 -1841.873834719328	 43.872699999999995	
-5621.170022506285	 -1841.6351720118334	 43.9227	
-5621.204015425745	 -1841.416624964685	 43.9227	
-5621.236176112691	 -1841.2142862031703	 43.8827	
-5621.266199236328	 -1841.03365689719	 43.8027	
-5621.294457202228	 -1840.853073736622	 43.7127	
-5621.322524450105	 -1840.6730524143127	 43.6327	
-5621.352793670976	 -1840.4862851816697	 43.5627	
-5621.398040295235	 -1840.19363893099	 43.7127	
-5621.432112813958	 -1839.9807374108068	 43.6927	
-5621.462477740956	 -1839.7890299401886	 43.6627	
-5621.5037026788605	 -1839.533664860082	 43.722699999999996	
-5621.535682370857	 -1839.3263098776335	 43.7027	
-5621.562326089548	 -1839.1557958682984	 43.622699999999995	
-5621.595639929082	 -1838.94888187832	 43.5827	
-5621.628003787979	 -1838.7410372664572	 43.5627	
-5621.663179945209	 -1838.529136546444	 43.5427	
-5621.687916443997	 -1838.3636071874246	 43.4627	
-5621.71569331151	 -1838.1940953964736	 43.372699999999995	
-5621.742177768391	 -1838.0285185188209	 43.2827	
-5621.781855659759	 -1837.7676950456878	 43.362700000000004	
-5621.826705948133	 -1837.4917656732512	 43.472699999999996	
-5621.857010314587	 -1837.2938432927779	 43.4327	
-5621.888817747273	 -1837.0920588302977	 43.4127	
-5621.918690353217	 -1836.911421886262	 43.3527	
-5621.952514407581	 -1836.693501209406	 43.3527	
-5621.986328771502	 -1836.4755801175238	 43.3527	
-5622.023882424495	 -1836.240839951709	 43.372699999999995	
-5622.05797806593	 -1836.0174169015431	 43.402699999999996	
-5622.089691517343	 -1835.8149943187311	 43.3827	
-5622.123574741745	 -1835.6020839149044	 43.3827	
-5622.155087556371	 -1835.4002227740102	 43.3527	
-5622.190421000835	 -1835.1828137845318	 43.3427	
-5622.220673859605	 -1834.9855231432002	 43.3227	
-5622.254296000815	 -1834.7725375630955	 43.3027	
-5622.286183450534	 -1834.5701861701637	 43.2927	
-5622.189590067906	 -1834.452198632427	 43.3347	
-5622.219694352877	 -1834.2598480116326	 43.2947	
-5622.251373812203	 -1834.0580604795837	 43.2747	
-5622.281876517015	 -1833.8552694025107	 43.2647	
-5622.310993901499	 -1833.675044226105	 43.2147	
-5622.341297373528	 -1833.4728147419983	 43.1947	
-5622.37312780932	 -1833.2704635671416	 43.1847	
-5622.407267265447	 -1833.0464754140992	 43.1947	
-5622.442637346336	 -1832.8179154355098	 43.2047	
-5622.478180032665	 -1832.5887927578804	 43.2247	
-5622.51352878374	 -1832.3602318739252	 43.2647	
-5622.545681104365	 -1832.146803293253	 43.2647	
-5622.577456896755	 -1831.9444497477155	 43.2447	
-5622.6112396109875	 -1831.7259601013654	 43.2347	
-5622.642814932087	 -1831.5241680535396	 43.2247	
-5622.673282575955	 -1831.3157984229886	 43.2147	
-5622.705024114931	 -1831.1134434066003	 43.1947	
-5622.7400090311585	 -1830.8903806141097	 43.2047	
-5622.770197178315	 -1830.6881466300256	 43.2047	
-5622.8038548346385	 -1830.4752290175913	 43.2047	
-5622.835336283234	 -1830.272799083152	 43.1847	
-5622.86769148721	 -1830.053865949081	 43.1947	
-5622.897031883291	 -1829.862559142677	 43.1747	
-5622.930470815112	 -1829.650202264166	 43.164699999999996	
-5622.9607479533925	 -1829.4467683299847	 43.154700000000005	
-5622.993875877517	 -1829.2399116115907	 43.134699999999995	
-5623.029361256698	 -1829.0058432861968	 43.164699999999996	
-5623.056002892968	 -1828.824240714568	 43.134699999999995	
-5623.089287521373	 -1828.6168205240638	 43.134699999999995	
-5623.122988368155	 -1828.3927504371813	 43.134699999999995	
-5623.158141456903	 -1828.1641814387287	 43.1447	
-5623.186214120336	 -1827.97807916479	 43.134699999999995	
-5623.219411637241	 -1827.7600711919272	 43.134699999999995	
